-0.021166 -0.063418 0.625391 
-0.022878 -0.060364 0.620045 
-0.008241 -0.088716 0.664783 
-0.009741 -0.086443 0.661193 
-0.011941 -0.086323 0.664681 
-0.005574 -0.086523 0.654151 
-0.007689 -0.086094 0.656305 
-0.004048 -0.088708 0.657310 
-0.015386 -0.081591 0.656530 
-0.011452 -0.083812 0.656381 
-0.013245 -0.082011 0.654084 
0.003066 -0.085697 0.641028 
0.000891 -0.086611 0.645788 
0.004569 -0.088913 0.646514 
-0.006892 -0.081509 0.643049 
-0.002963 -0.084164 0.644625 
-0.004633 -0.081507 0.640970 
0.000124 -0.089158 0.651915 
-0.001295 -0.086908 0.649125 
-0.003442 -0.086818 0.651804 
-0.022687 -0.072392 0.643473 
-0.018680 -0.074724 0.643272 
-0.020460 -0.072429 0.640897 
-0.015044 -0.079918 0.651249 
-0.016901 -0.077147 0.646374 
-0.019085 -0.077604 0.651147 
-0.012585 -0.077179 0.640847 
-0.014747 -0.077063 0.643143 
-0.010812 -0.079318 0.643082 
-0.007232 -0.084578 0.651602 
-0.008988 -0.082277 0.648179 
-0.011109 -0.082277 0.651409 
-0.007102 -0.070287 0.623197 
-0.011711 -0.071011 0.628332 
-0.009417 -0.070733 0.625992 
-0.005410 -0.073060 0.626071 
-0.003610 -0.075383 0.628408 
-0.018299 -0.072267 0.637994 
-0.010383 -0.077054 0.638393 
-0.014348 -0.074704 0.638185 
-0.016156 -0.071707 0.634078 
-0.013968 -0.071146 0.630454 
0.001583 -0.083474 0.638917 
-0.001827 -0.078356 0.632538 
-0.000064 -0.081139 0.636326 
-0.002353 -0.081378 0.638773 
-0.006353 -0.079220 0.638602 
-0.009995 -0.073463 0.630380 
-0.008165 -0.076737 0.635481 
-0.005954 -0.075753 0.630750 
-0.100029 -0.056109 0.632012 
-0.098336 -0.053266 0.637559 
-0.099115 -0.054333 0.633581 
-0.095348 -0.055859 0.630975 
-0.090706 -0.055748 0.629896 
-0.092611 -0.047112 0.647102 
-0.094431 -0.048666 0.644729 
-0.087750 -0.050764 0.634813 
-0.091202 -0.050017 0.640655 
-0.086436 -0.049498 0.638375 
-0.095906 -0.050234 0.642455 
-0.097219 -0.051748 0.640112 
-0.077397 -0.054954 0.625541 
-0.073012 -0.054361 0.623472 
-0.086162 -0.055482 0.628609 
-0.081784 -0.055175 0.627153 
-0.079880 -0.052126 0.631107 
-0.080960 -0.053757 0.629103 
-0.084413 -0.052288 0.632063 
-0.093578 -0.052367 0.634097 
-0.088975 -0.052290 0.633069 
-0.089947 -0.054018 0.631450 
-0.072086 -0.046080 0.677508 
-0.074817 -0.045245 0.674039 
-0.070718 -0.047057 0.663819 
-0.072678 -0.045733 0.667039 
-0.068255 -0.047934 0.666406 
-0.077237 -0.043639 0.667571 
-0.079973 -0.043517 0.664880 
-0.061464 -0.050149 0.646865 
-0.063812 -0.049140 0.650095 
-0.059522 -0.051116 0.649550 
-0.072785 -0.045909 0.650970 
-0.068214 -0.047376 0.650559 
-0.070307 -0.046949 0.647802 
-0.064134 -0.049977 0.659451 
-0.066200 -0.048509 0.654948 
-0.068550 -0.047979 0.660115 
-0.087727 -0.043642 0.652144 
-0.090284 -0.045437 0.649653 
-0.082624 -0.043361 0.661835 
-0.085284 -0.043778 0.658280 
-0.080003 -0.045593 0.648637 
-0.082556 -0.044170 0.651728 
-0.077546 -0.044706 0.651340 
-0.073091 -0.046261 0.660705 
-0.075367 -0.045467 0.656569 
-0.077725 -0.044554 0.661267 
-0.044882 -0.054350 0.618020 
-0.040969 -0.054519 0.617580 
-0.052687 -0.053786 0.619037 
-0.048784 -0.054064 0.618514 
-0.045470 -0.053385 0.625092 
-0.047222 -0.053472 0.620870 
-0.049575 -0.053001 0.626039 
-0.068662 -0.053511 0.621050 
-0.064526 -0.053509 0.620575 
-0.061946 -0.051515 0.628426 
-0.063382 -0.052409 0.624479 
-0.066256 -0.051273 0.629075 
-0.060500 -0.053712 0.620106 
-0.056560 -0.053755 0.619591 
-0.054771 -0.052070 0.642105 
-0.056660 -0.050851 0.636727 
-0.059076 -0.050772 0.642889 
-0.051941 -0.052482 0.630380 
-0.054332 -0.051777 0.633741 
-0.050120 -0.052690 0.633193 
-0.062732 -0.049235 0.634735 
-0.058500 -0.050528 0.634271 
-0.060235 -0.050435 0.631495 
-0.055170 -0.052317 0.621774 
-0.057738 -0.051611 0.627579 
-0.053658 -0.052485 0.626887 
-0.087514 -0.046845 0.646298 
-0.077395 -0.046925 0.645092 
-0.082409 -0.046630 0.645625 
-0.084605 -0.048190 0.642349 
-0.081431 -0.048927 0.636196 
-0.063438 -0.049396 0.643475 
-0.067208 -0.048846 0.635116 
-0.065206 -0.048027 0.637596 
-0.067824 -0.047800 0.643973 
-0.072510 -0.047138 0.644519 
-0.072055 -0.052741 0.626669 
-0.078392 -0.050292 0.633386 
-0.075278 -0.051601 0.630317 
-0.070699 -0.051278 0.629679 
-0.069045 -0.049937 0.632478 
-0.074640 -0.047594 0.640217 
-0.071812 -0.048564 0.635452 
-0.076586 -0.048483 0.635779 
-0.028568 -0.058695 0.723598 
-0.029781 -0.056223 0.722069 
-0.026431 -0.059977 0.715306 
-0.027909 -0.058029 0.718961 
-0.024725 -0.062013 0.717936 
-0.031920 -0.054474 0.720214 
-0.034095 -0.052819 0.717943 
-0.024632 -0.070692 0.700296 
-0.024715 -0.067639 0.703400 
-0.021837 -0.071216 0.702682 
-0.031289 -0.060667 0.705128 
-0.027903 -0.064134 0.704221 
-0.031034 -0.063947 0.701867 
-0.022435 -0.066022 0.710203 
-0.024857 -0.064561 0.706251 
-0.025139 -0.061778 0.710414 
-0.042893 -0.051260 0.708736 
-0.046095 -0.051629 0.706592 
-0.036887 -0.052005 0.715214 
-0.039836 -0.051137 0.710716 
-0.038095 -0.057395 0.703916 
-0.038828 -0.054236 0.707459 
-0.034910 -0.057300 0.706196 
-0.029266 -0.058822 0.712053 
-0.031822 -0.057510 0.708245 
-0.032619 -0.054906 0.713237 
-0.014200 -0.085787 0.667732 
-0.016519 -0.084979 0.670579 
-0.012768 -0.087470 0.670078 
-0.024225 -0.079900 0.671831 
-0.020351 -0.082461 0.671169 
-0.021998 -0.080855 0.668690 
-0.017333 -0.086599 0.679515 
-0.018835 -0.084588 0.675297 
-0.020918 -0.083815 0.680234 
-0.039431 -0.068510 0.674976 
-0.035676 -0.071500 0.674118 
-0.037598 -0.069861 0.671439 
-0.031317 -0.074628 0.682815 
-0.033593 -0.073123 0.678085 
-0.034851 -0.071515 0.683773 
-0.029859 -0.075598 0.669942 
-0.031849 -0.074373 0.673314 
-0.028070 -0.077221 0.672539 
-0.021973 -0.077629 0.696028 
-0.024369 -0.076857 0.691954 
-0.024626 -0.073929 0.696833 
-0.022422 -0.081923 0.683928 
-0.023622 -0.079439 0.687225 
-0.020670 -0.082807 0.686274 
-0.029816 -0.072599 0.689149 
-0.026672 -0.076015 0.688203 
-0.029049 -0.075544 0.685823 
-0.026243 -0.078996 0.676433 
-0.027842 -0.077772 0.681910 
-0.024415 -0.080877 0.681058 
-0.066982 -0.048148 0.684113 
-0.069444 -0.046985 0.680108 
-0.061898 -0.050228 0.691328 
-0.064469 -0.049307 0.688412 
-0.060847 -0.052387 0.677902 
-0.062657 -0.050662 0.681222 
-0.058539 -0.053619 0.680143 
-0.049373 -0.051857 0.704156 
-0.052793 -0.051884 0.701176 
-0.050680 -0.056830 0.691666 
-0.051638 -0.053963 0.694904 
-0.047636 -0.057097 0.693883 
-0.055941 -0.050967 0.695939 
-0.059043 -0.050722 0.693775 
-0.045095 -0.063873 0.673382 
-0.046792 -0.062445 0.676935 
-0.043058 -0.065415 0.675908 
-0.054526 -0.056524 0.679056 
-0.050549 -0.059400 0.678003 
-0.052734 -0.058002 0.675618 
-0.045782 -0.062378 0.686751 
-0.048330 -0.061233 0.682847 
-0.049521 -0.059218 0.687852 
-0.057683 -0.053350 0.690196 
-0.053585 -0.056369 0.689046 
-0.056200 -0.055398 0.685692 
-0.027417 -0.070287 0.697366 
-0.033148 -0.069360 0.690006 
-0.030217 -0.069564 0.692954 
-0.030685 -0.067007 0.698158 
-0.034156 -0.063864 0.699141 
-0.040879 -0.067102 0.680146 
-0.043074 -0.063007 0.689543 
-0.042060 -0.065395 0.685656 
-0.038385 -0.068393 0.684666 
-0.035763 -0.069001 0.687596 
-0.045196 -0.054637 0.702750 
-0.037645 -0.060706 0.700160 
-0.041299 -0.057578 0.701367 
-0.044577 -0.057684 0.698198 
-0.043834 -0.060183 0.692835 
-0.036630 -0.066309 0.690872 
-0.040176 -0.063233 0.691810 
-0.037225 -0.063590 0.695278 
-0.039257 -0.054748 0.620051 
-0.043696 -0.054387 0.629114 
-0.041464 -0.054529 0.624310 
-0.037344 -0.055609 0.623813 
-0.035457 -0.057385 0.628243 
-0.052966 -0.053683 0.645449 
-0.050712 -0.053977 0.641089 
-0.042368 -0.057564 0.639252 
-0.046495 -0.055629 0.640131 
-0.044738 -0.057767 0.643710 
-0.048375 -0.053807 0.635520 
-0.046008 -0.054118 0.632578 
-0.030254 -0.064631 0.637704 
-0.028492 -0.067456 0.641307 
-0.033657 -0.059375 0.631107 
-0.031972 -0.061629 0.633328 
-0.036551 -0.062302 0.642290 
-0.034274 -0.062088 0.637980 
-0.038291 -0.059699 0.638503 
-0.041807 -0.055475 0.632048 
-0.040023 -0.057174 0.634374 
-0.037723 -0.057323 0.631527 
-0.067660 -0.048601 0.676475 
-0.059110 -0.053708 0.674116 
-0.063312 -0.051088 0.675312 
-0.065876 -0.049780 0.671954 
-0.063856 -0.050150 0.665613 
-0.043331 -0.064919 0.669317 
-0.047228 -0.062151 0.670479 
-0.051414 -0.057960 0.662846 
-0.049265 -0.059714 0.665509 
-0.047419 -0.060686 0.661916 
-0.051078 -0.059276 0.671674 
-0.055007 -0.056403 0.672877 
-0.057522 -0.052383 0.652395 
-0.055220 -0.053028 0.648863 
-0.061880 -0.051243 0.662381 
-0.059764 -0.052134 0.658602 
-0.051500 -0.057068 0.656611 
-0.055595 -0.054581 0.657633 
-0.053527 -0.056296 0.660556 
-0.057324 -0.054581 0.669064 
-0.055457 -0.055266 0.663792 
-0.059589 -0.052636 0.664724 
-0.015803 -0.083870 0.664854 
-0.019459 -0.079348 0.656869 
-0.017564 -0.081329 0.660060 
-0.019728 -0.081366 0.665198 
-0.023750 -0.078908 0.665616 
-0.026699 -0.069876 0.643874 
-0.024947 -0.072095 0.645977 
-0.029455 -0.072415 0.655438 
-0.027221 -0.072629 0.651654 
-0.031273 -0.070016 0.652127 
-0.023123 -0.075113 0.651332 
-0.021335 -0.077445 0.654458 
-0.035681 -0.070817 0.667418 
-0.039533 -0.067873 0.668253 
-0.027779 -0.076347 0.666117 
-0.031756 -0.073645 0.666725 
-0.035589 -0.069080 0.659235 
-0.033721 -0.071000 0.661290 
-0.031584 -0.071781 0.658530 
-0.023526 -0.076948 0.657338 
-0.027554 -0.074398 0.657899 
-0.025664 -0.076195 0.659988 
-0.051067 -0.055152 0.648027 
-0.047445 -0.059570 0.655505 
-0.049289 -0.056945 0.650150 
-0.047045 -0.057490 0.647136 
-0.042975 -0.059822 0.646316 
-0.041444 -0.065186 0.662952 
-0.037540 -0.067077 0.656798 
-0.039531 -0.066264 0.660056 
-0.043492 -0.063487 0.660959 
-0.045500 -0.061617 0.658603 
-0.030754 -0.067294 0.644363 
-0.038853 -0.062161 0.645604 
-0.034811 -0.064709 0.644932 
-0.033035 -0.066961 0.647107 
-0.035321 -0.067340 0.652749 
-0.043426 -0.062126 0.654433 
-0.039361 -0.064678 0.653519 
-0.041140 -0.061806 0.648515 
-0.130055 -0.185538 0.649779 
-0.128119 -0.189437 0.651618 
-0.133567 -0.176240 0.644565 
-0.131589 -0.180236 0.645462 
-0.121629 -0.183306 0.643198 
-0.126781 -0.182093 0.644336 
-0.123599 -0.179895 0.642129 
-0.140048 -0.157332 0.637144 
-0.138838 -0.162604 0.639784 
-0.128475 -0.166620 0.635211 
-0.133484 -0.164392 0.636395 
-0.129886 -0.162799 0.634403 
-0.137282 -0.167483 0.642067 
-0.135533 -0.171906 0.643423 
-0.106901 -0.171539 0.630796 
-0.112738 -0.170690 0.631945 
-0.108611 -0.168052 0.629255 
-0.120273 -0.177006 0.638987 
-0.116440 -0.173142 0.633924 
-0.114546 -0.177561 0.636949 
-0.119548 -0.166223 0.631925 
-0.118190 -0.169697 0.633023 
-0.123436 -0.168352 0.634095 
-0.130524 -0.174161 0.642185 
-0.127126 -0.171413 0.638481 
-0.125459 -0.175876 0.640748 
-0.144413 -0.114069 0.624363 
-0.144821 -0.120503 0.627855 
-0.133803 -0.128753 0.622222 
-0.139334 -0.124834 0.625219 
-0.133822 -0.123137 0.620267 
-0.144686 -0.125985 0.629065 
-0.144266 -0.131216 0.629744 
-0.111291 -0.142197 0.616024 
-0.116941 -0.139278 0.616842 
-0.111696 -0.137934 0.615374 
-0.127552 -0.142966 0.624444 
-0.122394 -0.141401 0.621115 
-0.121991 -0.146107 0.622976 
-0.122985 -0.131247 0.617253 
-0.122595 -0.135979 0.617854 
-0.128113 -0.132237 0.619201 
-0.142273 -0.147778 0.635251 
-0.141259 -0.152767 0.636318 
-0.143580 -0.136323 0.630185 
-0.143109 -0.142378 0.633475 
-0.131737 -0.148648 0.627527 
-0.137397 -0.145860 0.630737 
-0.132445 -0.144155 0.626892 
-0.133666 -0.134436 0.624796 
-0.133144 -0.139458 0.626049 
-0.138728 -0.135534 0.627802 
-0.065467 -0.155854 0.614865 
-0.070708 -0.154353 0.615999 
-0.066065 -0.152746 0.614593 
-0.081576 -0.159231 0.621196 
-0.076079 -0.157329 0.619601 
-0.075439 -0.160469 0.621148 
-0.077002 -0.149781 0.615571 
-0.076435 -0.153033 0.616178 
-0.082318 -0.151656 0.616013 
-0.103524 -0.164836 0.624356 
-0.098214 -0.163620 0.623378 
-0.097166 -0.166038 0.624097 
-0.099265 -0.158102 0.621420 
-0.098839 -0.161014 0.622536 
-0.104722 -0.159472 0.622782 
-0.086309 -0.163451 0.622974 
-0.092690 -0.162370 0.622643 
-0.087155 -0.160877 0.622042 
-0.100173 -0.142970 0.614780 
-0.099908 -0.146730 0.615390 
-0.105648 -0.144576 0.615580 
-0.088199 -0.150228 0.615700 
-0.094062 -0.148575 0.615513 
-0.088582 -0.146710 0.615143 
-0.105334 -0.152891 0.620154 
-0.099694 -0.150660 0.617183 
-0.099544 -0.154824 0.619826 
-0.087630 -0.157907 0.620761 
-0.093617 -0.156441 0.620271 
-0.087963 -0.154371 0.618748 
-0.136000 -0.155972 0.634723 
-0.126397 -0.151585 0.626333 
-0.131462 -0.154201 0.631476 
-0.130844 -0.158718 0.633221 
-0.125624 -0.160959 0.631823 
-0.111118 -0.146624 0.618219 
-0.110639 -0.154676 0.622299 
-0.110997 -0.151020 0.620765 
-0.116476 -0.148756 0.621841 
-0.121528 -0.150255 0.624285 
-0.109408 -0.164569 0.626918 
-0.120352 -0.162667 0.630281 
-0.114953 -0.163848 0.628785 
-0.109820 -0.160978 0.624277 
-0.110261 -0.157954 0.623385 
-0.121090 -0.154112 0.625233 
-0.115704 -0.156215 0.624256 
-0.120718 -0.158325 0.627491 
-0.106545 -0.061626 0.628679 
-0.102177 -0.066361 0.623563 
-0.104473 -0.063951 0.626148 
-0.109589 -0.062744 0.628177 
-0.112625 -0.063960 0.627719 
-0.090980 -0.075664 0.611787 
-0.093965 -0.072909 0.613427 
-0.105075 -0.071566 0.619978 
-0.099511 -0.072537 0.617483 
-0.102159 -0.074016 0.616794 
-0.096982 -0.070967 0.617501 
-0.099705 -0.068779 0.620763 
-0.121965 -0.068527 0.625800 
-0.125280 -0.070561 0.624818 
-0.115685 -0.065319 0.627213 
-0.118774 -0.066840 0.626552 
-0.113592 -0.072255 0.621191 
-0.116326 -0.069324 0.623873 
-0.110646 -0.070467 0.622108 
-0.104946 -0.067650 0.623212 
-0.107777 -0.068999 0.622739 
-0.110286 -0.066437 0.625307 
-0.066235 -0.088963 0.600265 
-0.069154 -0.087755 0.602382 
-0.078491 -0.090390 0.605659 
-0.073640 -0.089130 0.604426 
-0.075097 -0.092155 0.604394 
-0.072142 -0.086509 0.604120 
-0.075195 -0.085175 0.605602 
-0.100730 -0.094997 0.608352 
-0.094756 -0.093589 0.606657 
-0.096384 -0.097802 0.607459 
-0.091122 -0.087249 0.607892 
-0.093019 -0.090230 0.607315 
-0.096897 -0.087589 0.608137 
-0.085165 -0.094926 0.605816 
-0.089094 -0.092639 0.606579 
-0.083680 -0.091591 0.606257 
-0.084702 -0.080369 0.609208 
-0.087891 -0.078278 0.610352 
-0.078313 -0.083819 0.606963 
-0.081462 -0.082208 0.608219 
-0.092559 -0.082215 0.609349 
-0.086934 -0.082324 0.608883 
-0.089100 -0.084633 0.608415 
-0.081999 -0.088599 0.606654 
-0.085562 -0.086702 0.607501 
-0.080193 -0.086019 0.606900 
-0.143594 -0.102425 0.623202 
-0.144194 -0.108283 0.623610 
-0.140817 -0.091004 0.621867 
-0.142549 -0.096622 0.622575 
-0.132751 -0.105763 0.617250 
-0.137674 -0.101315 0.619958 
-0.131422 -0.099522 0.614915 
-0.128750 -0.073340 0.623475 
-0.132316 -0.076603 0.621948 
-0.125694 -0.085032 0.615933 
-0.129230 -0.080749 0.618771 
-0.122831 -0.081022 0.617034 
-0.135460 -0.080669 0.620754 
-0.138349 -0.085504 0.620727 
-0.108485 -0.100707 0.609641 
-0.112995 -0.097076 0.610729 
-0.106789 -0.096098 0.609553 
-0.125396 -0.098753 0.613388 
-0.119217 -0.097956 0.612019 
-0.120695 -0.102989 0.611875 
-0.115230 -0.088940 0.612422 
-0.117412 -0.093249 0.612049 
-0.121623 -0.089271 0.613915 
-0.134237 -0.089812 0.617278 
-0.128006 -0.089536 0.615517 
-0.129933 -0.094351 0.615172 
-0.093425 -0.077325 0.611259 
-0.098236 -0.081823 0.609956 
-0.095844 -0.079376 0.610671 
-0.098996 -0.076225 0.612226 
-0.104880 -0.075992 0.615796 
-0.104935 -0.091813 0.609237 
-0.112932 -0.085008 0.612802 
-0.109018 -0.088504 0.610861 
-0.102794 -0.087688 0.608288 
-0.100638 -0.084546 0.609042 
-0.122756 -0.073852 0.621563 
-0.110745 -0.075350 0.618017 
-0.116722 -0.074598 0.619824 
-0.119845 -0.077518 0.618360 
-0.116521 -0.081368 0.615504 
-0.104199 -0.081669 0.611738 
-0.110337 -0.081613 0.613875 
-0.107613 -0.078624 0.614936 
-0.035087 -0.108007 0.555650 
-0.035221 -0.108712 0.561914 
-0.036710 -0.114530 0.568848 
-0.036140 -0.111824 0.565970 
-0.036544 -0.115060 0.565520 
-0.035740 -0.108264 0.565859 
-0.036941 -0.107383 0.568910 
-0.041925 -0.125854 0.582457 
-0.040682 -0.123417 0.579946 
-0.041076 -0.126721 0.579271 
-0.040851 -0.116226 0.580161 
-0.040158 -0.119897 0.580389 
-0.042166 -0.118721 0.583134 
-0.038482 -0.120771 0.572017 
-0.039111 -0.120757 0.576925 
-0.037735 -0.117087 0.571410 
-0.042416 -0.103805 0.575771 
-0.044752 -0.103122 0.579888 
-0.038493 -0.106179 0.571491 
-0.040412 -0.105116 0.573682 
-0.043442 -0.110956 0.582554 
-0.041846 -0.108133 0.578632 
-0.041168 -0.112135 0.579857 
-0.037953 -0.113493 0.571540 
-0.039395 -0.113082 0.576220 
-0.037757 -0.109771 0.571836 
-0.061999 -0.150799 0.612650 
-0.058625 -0.148064 0.609939 
-0.058423 -0.151716 0.610061 
-0.059535 -0.139288 0.606929 
-0.059271 -0.143977 0.608507 
-0.063086 -0.143035 0.611436 
-0.052342 -0.145108 0.602559 
-0.055553 -0.144224 0.604941 
-0.052509 -0.141575 0.602961 
-0.061814 -0.122005 0.604894 
-0.061149 -0.126624 0.606055 
-0.065302 -0.124889 0.607335 
-0.053603 -0.129353 0.602133 
-0.057220 -0.128074 0.604436 
-0.054174 -0.124588 0.600255 
-0.064117 -0.133681 0.608194 
-0.060468 -0.130996 0.606710 
-0.060000 -0.135219 0.606912 
-0.044090 -0.133086 0.587971 
-0.045548 -0.132272 0.591728 
-0.043673 -0.129611 0.588476 
-0.050022 -0.138665 0.599949 
-0.047752 -0.134688 0.594150 
-0.048013 -0.138754 0.594826 
-0.048001 -0.127193 0.594809 
-0.047507 -0.131000 0.594715 
-0.050224 -0.130254 0.598821 
-0.056157 -0.136563 0.605298 
-0.053014 -0.133676 0.602931 
-0.052610 -0.137756 0.603174 
-0.061050 -0.092037 0.594193 
-0.063552 -0.090262 0.597193 
-0.056122 -0.096381 0.590916 
-0.058603 -0.094298 0.592537 
-0.065403 -0.097869 0.599968 
-0.061851 -0.095981 0.596538 
-0.062436 -0.100026 0.598155 
-0.046979 -0.102036 0.582840 
-0.049216 -0.100869 0.585244 
-0.053983 -0.104718 0.590301 
-0.051593 -0.102884 0.588000 
-0.051297 -0.106372 0.588628 
-0.051404 -0.099594 0.587370 
-0.053767 -0.098161 0.589188 
-0.066153 -0.115018 0.604011 
-0.062686 -0.112269 0.600743 
-0.062319 -0.116717 0.601909 
-0.062739 -0.104099 0.599235 
-0.062832 -0.108138 0.600070 
-0.066182 -0.105937 0.601363 
-0.056304 -0.111890 0.597151 
-0.059559 -0.110129 0.598699 
-0.056689 -0.107879 0.595830 
-0.056621 -0.099573 0.591346 
-0.056822 -0.103653 0.593642 
-0.059654 -0.102047 0.596078 
-0.043942 -0.125830 0.588328 
-0.048426 -0.123225 0.594746 
-0.045791 -0.124694 0.592054 
-0.043671 -0.121726 0.587913 
-0.044400 -0.117197 0.585599 
-0.058551 -0.118367 0.600007 
-0.053008 -0.113549 0.595375 
-0.055687 -0.116012 0.598007 
-0.054920 -0.120097 0.598572 
-0.051524 -0.121707 0.596852 
-0.046655 -0.105752 0.583958 
-0.045141 -0.113436 0.585330 
-0.045925 -0.109562 0.584822 
-0.048542 -0.107991 0.586843 
-0.050693 -0.110624 0.590614 
-0.049231 -0.119307 0.594124 
-0.049991 -0.115179 0.593018 
-0.047100 -0.116469 0.589973 
-0.139012 -0.113046 0.621615 
-0.127612 -0.109906 0.614878 
-0.133516 -0.111796 0.618819 
-0.133806 -0.117599 0.619731 
-0.128603 -0.121941 0.617905 
-0.103839 -0.104144 0.609006 
-0.109890 -0.105660 0.609732 
-0.111652 -0.116039 0.609827 
-0.110967 -0.110815 0.609716 
-0.105832 -0.114289 0.609268 
-0.115883 -0.107024 0.610659 
-0.121754 -0.108251 0.611877 
-0.112066 -0.133021 0.614428 
-0.106303 -0.136045 0.614011 
-0.123194 -0.125923 0.616458 
-0.117697 -0.129646 0.615238 
-0.106381 -0.124581 0.609556 
-0.112243 -0.127565 0.612792 
-0.111938 -0.121278 0.609914 
-0.122368 -0.113615 0.611940 
-0.117296 -0.117646 0.610646 
-0.123104 -0.120204 0.615167 
-0.067592 -0.092255 0.600918 
-0.069187 -0.099723 0.602150 
-0.068581 -0.095898 0.601533 
-0.071796 -0.093998 0.603029 
-0.076300 -0.095627 0.604378 
-0.070096 -0.117991 0.607072 
-0.070138 -0.112911 0.605251 
-0.078635 -0.108256 0.606228 
-0.074338 -0.110640 0.605794 
-0.079048 -0.113244 0.607593 
-0.069977 -0.107852 0.602895 
-0.069678 -0.103727 0.602576 
-0.091949 -0.100555 0.607059 
-0.097796 -0.102433 0.608318 
-0.081176 -0.097153 0.605183 
-0.086346 -0.098593 0.605590 
-0.088403 -0.108063 0.607826 
-0.087493 -0.103217 0.606798 
-0.083030 -0.105783 0.606668 
-0.073418 -0.101552 0.603515 
-0.077995 -0.103337 0.604305 
-0.077192 -0.099315 0.604535 
-0.066658 -0.149332 0.614188 
-0.077500 -0.146302 0.614734 
-0.071941 -0.147779 0.614832 
-0.067244 -0.145600 0.613604 
-0.067857 -0.141508 0.612595 
-0.100424 -0.138644 0.614079 
-0.094637 -0.140899 0.614206 
-0.083807 -0.135976 0.612544 
-0.089157 -0.138554 0.613560 
-0.089345 -0.133681 0.612071 
-0.088909 -0.142870 0.614387 
-0.083181 -0.144609 0.614702 
-0.069278 -0.127409 0.608806 
-0.069768 -0.122849 0.608158 
-0.068389 -0.136810 0.611120 
-0.068811 -0.131850 0.609012 
-0.078880 -0.127954 0.609369 
-0.073786 -0.129965 0.609312 
-0.078652 -0.132853 0.610614 
-0.077960 -0.142361 0.613986 
-0.078379 -0.137992 0.612826 
-0.073030 -0.139776 0.613082 
-0.098994 -0.107316 0.608591 
-0.089070 -0.113057 0.608379 
-0.094045 -0.110262 0.608465 
-0.099902 -0.112357 0.608860 
-0.100491 -0.117459 0.609034 
-0.074417 -0.120594 0.608507 
-0.084144 -0.125630 0.609324 
-0.079125 -0.123189 0.609016 
-0.079210 -0.118226 0.608476 
-0.084111 -0.115714 0.608395 
-0.100696 -0.133680 0.612953 
-0.100724 -0.122532 0.609280 
-0.100723 -0.127828 0.610164 
-0.095032 -0.130968 0.611367 
-0.089426 -0.127978 0.609423 
-0.089451 -0.118098 0.608869 
-0.089558 -0.123089 0.609204 
-0.095024 -0.120372 0.609087 
0.023582 -0.211219 0.410789 
0.024475 -0.209082 0.403376 
0.025424 -0.213923 0.409625 
0.023004 -0.204585 0.398201 
0.023806 -0.207018 0.401092 
0.021719 -0.204713 0.402776 
0.027729 -0.212199 0.398799 
0.025819 -0.209589 0.399738 
0.027293 -0.209752 0.395803 
0.018636 -0.191611 0.382329 
0.019596 -0.193499 0.384481 
0.017257 -0.191492 0.386261 
0.024028 -0.198389 0.381438 
0.021932 -0.195771 0.382884 
0.023192 -0.196127 0.378799 
0.019560 -0.198202 0.394610 
0.020712 -0.196472 0.388193 
0.021824 -0.200364 0.392962 
0.033279 -0.209396 0.379266 
0.030787 -0.206599 0.379075 
0.032096 -0.206067 0.374336 
0.028529 -0.209617 0.391344 
0.029438 -0.207798 0.384544 
0.030543 -0.212551 0.390958 
0.027393 -0.201127 0.375838 
0.028312 -0.203925 0.379409 
0.026130 -0.201137 0.380246 
0.024263 -0.203414 0.392400 
0.025101 -0.201716 0.385588 
0.026424 -0.206530 0.391799 
0.008345 -0.171012 0.357925 
0.009679 -0.173172 0.360110 
0.007340 -0.171038 0.361963 
0.014645 -0.177598 0.356503 
0.012132 -0.175361 0.358285 
0.013333 -0.175510 0.354296 
0.010191 -0.177601 0.369560 
0.011211 -0.177028 0.364710 
0.012550 -0.179644 0.367723 
0.024213 -0.188860 0.351324 
0.021762 -0.185815 0.352260 
0.022816 -0.185620 0.347403 
0.020002 -0.186390 0.362708 
0.020871 -0.186662 0.358097 
0.022181 -0.189015 0.361074 
0.018198 -0.180401 0.350766 
0.019363 -0.182494 0.352976 
0.017096 -0.179965 0.354735 
0.015226 -0.188077 0.382261 
0.016504 -0.187922 0.377974 
0.017643 -0.189990 0.380510 
0.013814 -0.181720 0.370157 
0.015236 -0.185199 0.374561 
0.012828 -0.183281 0.376343 
0.020105 -0.189767 0.371426 
0.017677 -0.187375 0.372941 
0.018777 -0.186025 0.366814 
0.016212 -0.181484 0.361268 
0.017584 -0.183978 0.364339 
0.015034 -0.181772 0.365995 
0.047193 -0.205396 0.346370 
0.044157 -0.204107 0.346557 
0.045891 -0.203614 0.342855 
0.040969 -0.206289 0.355840 
0.042330 -0.204348 0.349979 
0.043999 -0.208211 0.355975 
0.039447 -0.200542 0.343079 
0.041021 -0.202684 0.346839 
0.037940 -0.200985 0.347273 
0.033843 -0.205955 0.370544 
0.035703 -0.206673 0.367573 
0.036519 -0.207918 0.370149 
0.033397 -0.202706 0.361000 
0.034655 -0.204971 0.364574 
0.031867 -0.202836 0.365317 
0.040341 -0.208693 0.363597 
0.037425 -0.207008 0.363954 
0.039260 -0.206885 0.360155 
0.027586 -0.190682 0.344408 
0.029232 -0.194495 0.349379 
0.026670 -0.191772 0.350322 
0.034907 -0.199063 0.347848 
0.032020 -0.196885 0.348564 
0.033203 -0.196043 0.343380 
0.029322 -0.196512 0.356823 
0.030627 -0.196935 0.352838 
0.031861 -0.198827 0.355664 
0.037841 -0.204057 0.355666 
0.034574 -0.200932 0.354662 
0.036296 -0.201071 0.351074 
0.019986 -0.192201 0.378746 
0.022471 -0.192356 0.369946 
0.021179 -0.192521 0.374586 
0.022290 -0.194569 0.377039 
0.024451 -0.197107 0.375431 
0.025606 -0.191941 0.355222 
0.028045 -0.197311 0.362119 
0.026760 -0.194182 0.358054 
0.024414 -0.191635 0.359493 
0.023330 -0.190997 0.363488 
0.031180 -0.204108 0.371382 
0.026635 -0.199604 0.373999 
0.028822 -0.202088 0.372721 
0.030248 -0.202637 0.369115 
0.029255 -0.200448 0.366219 
0.024684 -0.195087 0.368534 
0.026908 -0.197822 0.367285 
0.025757 -0.197559 0.371555 
-0.014894 -0.118303 0.308879 
-0.016355 -0.115513 0.310528 
-0.011475 -0.124535 0.305928 
-0.013372 -0.121501 0.307404 
-0.013400 -0.121534 0.315400 
-0.013327 -0.121862 0.312116 
-0.011958 -0.124395 0.313683 
-0.003319 -0.137146 0.300247 
-0.005582 -0.133994 0.301702 
-0.006495 -0.133412 0.308847 
-0.006065 -0.133349 0.304886 
-0.004411 -0.136403 0.307282 
-0.007724 -0.130909 0.303121 
-0.009653 -0.127762 0.304523 
-0.007508 -0.138331 0.330365 
-0.007238 -0.137907 0.326262 
-0.005772 -0.141142 0.328600 
-0.010410 -0.128127 0.316825 
-0.008833 -0.132788 0.321242 
-0.010469 -0.129829 0.322860 
-0.005068 -0.139804 0.319479 
-0.006995 -0.136463 0.320625 
-0.006795 -0.134266 0.313843 
-0.010014 -0.127623 0.308435 
-0.008413 -0.130370 0.310416 
-0.010328 -0.127395 0.312024 
0.017713 -0.159223 0.284455 
0.014869 -0.156523 0.286145 
0.013389 -0.158012 0.296634 
0.014025 -0.156914 0.290934 
0.016178 -0.161090 0.295342 
0.012082 -0.153828 0.287946 
0.009436 -0.151048 0.289859 
0.010800 -0.160434 0.316523 
0.011577 -0.160787 0.312831 
0.013236 -0.163110 0.314655 
0.007684 -0.153940 0.306435 
0.009759 -0.158022 0.310462 
0.007149 -0.155131 0.312121 
0.014847 -0.163736 0.307054 
0.012319 -0.160886 0.308769 
0.013008 -0.160386 0.303906 
0.001579 -0.142672 0.295995 
-0.000911 -0.139866 0.298126 
0.006812 -0.148257 0.291862 
0.004184 -0.145466 0.293905 
0.002819 -0.145652 0.302618 
0.003455 -0.145070 0.297749 
0.005462 -0.148724 0.301074 
0.010759 -0.154877 0.298049 
0.008113 -0.151791 0.299538 
0.008704 -0.150988 0.294218 
0.004561 -0.166040 0.356827 
0.005154 -0.163734 0.349653 
0.006902 -0.168369 0.355134 
0.001934 -0.156185 0.341521 
0.003473 -0.159518 0.344891 
0.001235 -0.157008 0.346456 
0.008388 -0.164678 0.341872 
0.005902 -0.162075 0.343388 
0.006727 -0.161314 0.338303 
-0.004290 -0.143877 0.330412 
-0.002785 -0.146081 0.331798 
-0.004691 -0.143426 0.333524 
0.001588 -0.151514 0.328552 
-0.000725 -0.148811 0.330139 
-0.000082 -0.149132 0.326732 
-0.001627 -0.151154 0.341109 
-0.001215 -0.149525 0.335013 
0.000403 -0.153876 0.339547 
0.011728 -0.162645 0.322536 
0.009109 -0.159848 0.323998 
0.009945 -0.159637 0.319643 
0.007642 -0.161659 0.334628 
0.008382 -0.160802 0.329361 
0.010160 -0.164141 0.332812 
0.004793 -0.154324 0.323114 
0.006497 -0.157076 0.325486 
0.004006 -0.154276 0.327012 
0.002698 -0.156678 0.338178 
0.003299 -0.155117 0.332082 
0.005138 -0.159210 0.336477 
-0.001627 -0.139177 0.301334 
0.002276 -0.146959 0.308316 
0.000247 -0.142567 0.304160 
-0.002159 -0.139460 0.305714 
-0.002615 -0.140550 0.311042 
0.008265 -0.157696 0.318305 
0.003066 -0.152289 0.321764 
0.005673 -0.154976 0.320051 
0.006446 -0.155200 0.316323 
0.004500 -0.152187 0.313711 
-0.003814 -0.143947 0.326885 
-0.002855 -0.142979 0.318187 
-0.003346 -0.143780 0.322985 
-0.001660 -0.146734 0.325191 
0.000614 -0.149542 0.323484 
0.001895 -0.149188 0.315260 
0.001321 -0.149543 0.319699 
-0.000604 -0.146149 0.316756 
0.072906 -0.176273 0.279718 
0.070112 -0.176463 0.279514 
0.067171 -0.179836 0.286856 
0.068724 -0.178393 0.283527 
0.069942 -0.179496 0.286916 
0.067135 -0.176797 0.279450 
0.064094 -0.177135 0.279297 
0.060924 -0.187555 0.301806 
0.062228 -0.184467 0.296639 
0.063999 -0.187416 0.302302 
0.059424 -0.181986 0.289838 
0.060660 -0.182543 0.292360 
0.057483 -0.182765 0.292409 
0.066521 -0.181734 0.292805 
0.063661 -0.182141 0.292487 
0.065407 -0.180929 0.289670 
0.054196 -0.177039 0.278852 
0.050506 -0.175723 0.278173 
0.060909 -0.177527 0.279173 
0.057632 -0.177833 0.278999 
0.054673 -0.181110 0.287151 
0.056344 -0.179743 0.283598 
0.057990 -0.181115 0.286893 
0.064236 -0.180268 0.286843 
0.061163 -0.180739 0.286836 
0.062769 -0.179219 0.283462 
0.047521 -0.202511 0.338545 
0.049004 -0.200055 0.332957 
0.050763 -0.203717 0.338589 
0.045986 -0.196119 0.325982 
0.047571 -0.198507 0.329742 
0.044248 -0.197403 0.330215 
0.054085 -0.199998 0.329051 
0.050889 -0.199306 0.329357 
0.052692 -0.198155 0.325364 
0.038343 -0.183917 0.308314 
0.040133 -0.186049 0.311597 
0.036722 -0.184869 0.312539 
0.046946 -0.188276 0.310065 
0.043516 -0.187265 0.310737 
0.045477 -0.187126 0.307653 
0.040326 -0.190061 0.319904 
0.041823 -0.188302 0.314899 
0.043737 -0.191696 0.319646 
0.060406 -0.190459 0.309309 
0.057139 -0.190473 0.309004 
0.059005 -0.188822 0.305257 
0.054209 -0.196147 0.320172 
0.055482 -0.192947 0.313741 
0.057607 -0.197010 0.320613 
0.052261 -0.188709 0.305875 
0.053724 -0.190216 0.309008 
0.050334 -0.189309 0.309446 
0.047185 -0.193199 0.319447 
0.048674 -0.190882 0.314037 
0.050668 -0.194351 0.319415 
0.024018 -0.164355 0.281736 
0.020652 -0.161958 0.282939 
0.031406 -0.168328 0.280043 
0.027724 -0.166322 0.280835 
0.025375 -0.170969 0.293199 
0.026297 -0.168163 0.286174 
0.028954 -0.173066 0.292355 
0.046718 -0.174961 0.278287 
0.042949 -0.173344 0.278601 
0.040146 -0.177733 0.289942 
0.041822 -0.176492 0.285342 
0.043824 -0.179046 0.289090 
0.039116 -0.171717 0.278990 
0.035285 -0.170013 0.279488 
0.032796 -0.178988 0.304336 
0.034542 -0.178278 0.300402 
0.036323 -0.180538 0.303680 
0.031039 -0.175491 0.295762 
0.032906 -0.177189 0.298436 
0.029344 -0.175809 0.299456 
0.040052 -0.179729 0.296433 
0.036471 -0.178517 0.297419 
0.038325 -0.178266 0.293849 
0.033933 -0.172096 0.285171 
0.036430 -0.176294 0.290767 
0.032688 -0.174750 0.291566 
0.057565 -0.187387 0.301542 
0.050490 -0.186199 0.301634 
0.054040 -0.187183 0.301402 
0.055684 -0.184717 0.296348 
0.054055 -0.182834 0.292635 
0.039857 -0.182108 0.303029 
0.043559 -0.180671 0.295232 
0.041599 -0.180887 0.298578 
0.043397 -0.183591 0.302460 
0.046926 -0.184982 0.301981 
0.049274 -0.179105 0.284219 
0.052694 -0.182143 0.290386 
0.051092 -0.180930 0.287548 
0.047512 -0.180024 0.288323 
0.045570 -0.180593 0.291978 
0.048642 -0.183278 0.297125 
0.047098 -0.181499 0.294189 
0.050595 -0.182229 0.293333 
0.009350 -0.170690 0.353362 
0.010930 -0.167232 0.340328 
0.010120 -0.168753 0.346550 
0.011876 -0.173023 0.351600 
0.014416 -0.175432 0.349880 
0.014145 -0.165538 0.321030 
0.013519 -0.166562 0.326670 
0.016642 -0.171809 0.331956 
0.015083 -0.169179 0.329246 
0.017472 -0.171788 0.327531 
0.012628 -0.166647 0.331008 
0.011739 -0.166490 0.335084 
0.021549 -0.183321 0.344909 
0.023887 -0.186016 0.343373 
0.016893 -0.177935 0.348173 
0.019220 -0.180613 0.346512 
0.020739 -0.178330 0.334704 
0.020096 -0.180308 0.341601 
0.018296 -0.175405 0.335932 
0.013443 -0.169830 0.338790 
0.015870 -0.172573 0.337305 
0.015299 -0.174486 0.344273 
0.019831 -0.162694 0.288150 
0.024315 -0.171593 0.298067 
0.022163 -0.168082 0.294040 
0.018997 -0.164271 0.294157 
0.018372 -0.166344 0.300911 
0.031333 -0.180347 0.309145 
0.029402 -0.177282 0.305110 
0.023382 -0.172984 0.307429 
0.026269 -0.175253 0.306137 
0.025157 -0.175761 0.310646 
0.027735 -0.175493 0.302707 
0.026205 -0.173783 0.300760 
0.015651 -0.165598 0.312619 
0.014792 -0.165141 0.316227 
0.017407 -0.166552 0.305324 
0.016581 -0.166246 0.309254 
0.019737 -0.170558 0.313084 
0.018121 -0.168102 0.310715 
0.020640 -0.170612 0.308955 
0.023012 -0.171702 0.302104 
0.021892 -0.171348 0.305854 
0.020176 -0.169181 0.303673 
0.044237 -0.200796 0.338295 
0.037647 -0.196783 0.337862 
0.040737 -0.198297 0.337195 
0.042535 -0.197933 0.333895 
0.040967 -0.196018 0.330684 
0.026279 -0.188639 0.341943 
0.028890 -0.191026 0.340681 
0.031573 -0.190288 0.332282 
0.030131 -0.191106 0.336708 
0.028712 -0.187657 0.332876 
0.031601 -0.193257 0.339539 
0.034648 -0.195041 0.338654 
0.035090 -0.185250 0.316093 
0.033443 -0.183574 0.313660 
0.039114 -0.192941 0.326216 
0.036989 -0.188237 0.320192 
0.030551 -0.184309 0.321194 
0.033782 -0.186232 0.320634 
0.032513 -0.187909 0.325830 
0.036203 -0.194939 0.335070 
0.034528 -0.192595 0.331653 
0.037637 -0.194561 0.331083 
0.016531 -0.168420 0.319557 
0.021542 -0.174117 0.316964 
0.018988 -0.171279 0.318184 
0.018377 -0.172542 0.324074 
0.019837 -0.174434 0.325885 
0.030181 -0.182099 0.314683 
0.027608 -0.182029 0.322018 
0.028679 -0.181825 0.317809 
0.027037 -0.179670 0.315188 
0.024105 -0.177028 0.315933 
0.024925 -0.185996 0.338998 
0.021430 -0.177436 0.329150 
0.023225 -0.181283 0.333611 
0.025731 -0.184430 0.332860 
0.026681 -0.182868 0.327044 
0.023338 -0.177397 0.320679 
0.024840 -0.179616 0.323077 
0.022242 -0.177086 0.324372 
-0.029660 -0.063295 0.731342 
-0.028655 -0.061611 0.728304 
-0.031966 -0.066414 0.735664 
-0.030827 -0.064776 0.733648 
-0.024505 -0.068830 0.727505 
-0.027566 -0.066972 0.730757 
-0.025510 -0.070668 0.730297 
-0.035559 -0.074771 0.748102 
-0.034709 -0.072732 0.746000 
-0.028666 -0.077087 0.739705 
-0.031550 -0.074990 0.743081 
-0.029517 -0.079298 0.742606 
-0.033863 -0.070706 0.743486 
-0.032958 -0.068665 0.740126 
-0.017647 -0.084130 0.725706 
-0.020353 -0.082337 0.728619 
-0.018747 -0.086332 0.728118 
-0.023754 -0.074471 0.729699 
-0.022007 -0.078392 0.729136 
-0.020971 -0.076294 0.726624 
-0.024029 -0.083026 0.735543 
-0.023088 -0.080415 0.731345 
-0.025843 -0.078723 0.735312 
-0.029733 -0.070363 0.735102 
-0.027695 -0.074319 0.734544 
-0.026691 -0.072493 0.732506 
-0.043631 -0.095655 0.770653 
-0.042832 -0.092484 0.766993 
-0.036115 -0.096434 0.760462 
-0.039340 -0.094379 0.763526 
-0.036927 -0.099372 0.763171 
-0.041924 -0.089521 0.763973 
-0.040989 -0.086857 0.761740 
-0.024635 -0.104005 0.746999 
-0.027264 -0.102286 0.750859 
-0.025471 -0.107381 0.751204 
-0.031097 -0.092446 0.750619 
-0.029144 -0.097300 0.750643 
-0.028244 -0.094349 0.747163 
-0.030901 -0.103473 0.757363 
-0.030019 -0.100697 0.755257 
-0.033021 -0.098657 0.758033 
-0.037719 -0.078699 0.751300 
-0.036646 -0.076628 0.749237 
-0.040002 -0.084310 0.759259 
-0.038870 -0.081292 0.754732 
-0.032171 -0.085246 0.747993 
-0.035344 -0.083158 0.750995 
-0.033196 -0.087755 0.750711 
-0.035186 -0.093901 0.758908 
-0.034202 -0.090735 0.754693 
-0.037532 -0.089143 0.759375 
-0.006702 -0.120888 0.722408 
-0.008736 -0.119310 0.726927 
-0.007438 -0.124045 0.726792 
-0.011352 -0.109537 0.726579 
-0.010035 -0.114495 0.726900 
-0.009242 -0.111341 0.722168 
-0.011684 -0.119951 0.732939 
-0.010871 -0.117328 0.730395 
-0.012995 -0.115162 0.733510 
-0.017200 -0.090529 0.727569 
-0.015625 -0.095022 0.726967 
-0.014632 -0.092633 0.724645 
-0.017331 -0.100784 0.734896 
-0.016478 -0.097968 0.731218 
-0.018914 -0.096087 0.735243 
-0.011803 -0.101975 0.723402 
-0.014143 -0.099670 0.726306 
-0.012712 -0.104351 0.725647 
-0.020510 -0.110848 0.743343 
-0.019710 -0.108059 0.740861 
-0.022131 -0.105891 0.743652 
-0.015182 -0.112921 0.736386 
-0.017454 -0.110604 0.738972 
-0.015960 -0.115260 0.737801 
-0.020492 -0.101070 0.740368 
-0.018928 -0.105818 0.739754 
-0.018166 -0.103349 0.737549 
-0.013582 -0.107710 0.730997 
-0.015886 -0.105594 0.734455 
-0.014427 -0.110390 0.733999 
-0.033316 -0.079080 0.747536 
-0.029255 -0.087597 0.745946 
-0.031211 -0.083347 0.746942 
-0.030371 -0.081348 0.744947 
-0.027577 -0.083501 0.742174 
-0.023790 -0.101098 0.743991 
-0.022142 -0.096502 0.740870 
-0.022927 -0.098788 0.742632 
-0.025516 -0.096450 0.744476 
-0.027347 -0.091950 0.745128 
-0.019728 -0.088533 0.730275 
-0.024906 -0.085501 0.739130 
-0.022287 -0.087298 0.735536 
-0.020573 -0.091617 0.735440 
-0.021372 -0.094111 0.738471 
-0.026476 -0.089924 0.743948 
-0.023879 -0.092068 0.741323 
-0.025676 -0.087728 0.741761 
-0.054141 -0.157858 0.803351 
-0.053234 -0.152646 0.801077 
-0.047442 -0.155223 0.797087 
-0.050172 -0.153797 0.798811 
-0.048297 -0.159604 0.797660 
-0.052551 -0.148009 0.800036 
-0.051862 -0.143672 0.799510 
-0.037872 -0.161432 0.790127 
-0.040125 -0.159842 0.791968 
-0.038902 -0.165492 0.791311 
-0.043400 -0.148238 0.793458 
-0.041611 -0.154077 0.792713 
-0.040872 -0.149793 0.791023 
-0.043348 -0.162445 0.794574 
-0.042404 -0.158314 0.793767 
-0.044896 -0.156764 0.795446 
-0.050323 -0.130931 0.795490 
-0.049739 -0.126617 0.792546 
-0.051327 -0.139441 0.798773 
-0.050877 -0.135203 0.797527 
-0.044734 -0.137869 0.791349 
-0.047720 -0.136603 0.794886 
-0.045419 -0.142381 0.794204 
-0.046764 -0.150915 0.796443 
-0.046101 -0.146670 0.795557 
-0.048865 -0.145135 0.797569 
-0.020951 -0.174958 0.771595 
-0.022945 -0.173296 0.773664 
-0.022259 -0.178281 0.773366 
-0.024593 -0.162725 0.774280 
-0.023711 -0.168099 0.773982 
-0.022630 -0.164441 0.771611 
-0.026213 -0.174752 0.776958 
-0.024929 -0.171495 0.775632 
-0.026988 -0.169651 0.777509 
-0.029722 -0.139903 0.773859 
-0.028189 -0.145610 0.773845 
-0.027254 -0.142068 0.771799 
-0.030224 -0.153405 0.779445 
-0.029216 -0.149755 0.777465 
-0.031567 -0.147807 0.780092 
-0.024594 -0.152782 0.770056 
-0.026882 -0.151538 0.774449 
-0.025643 -0.157190 0.774480 
-0.034655 -0.168731 0.787710 
-0.033423 -0.164813 0.785612 
-0.035643 -0.163129 0.788059 
-0.029062 -0.167748 0.779347 
-0.031164 -0.166310 0.782630 
-0.030292 -0.172032 0.783188 
-0.033582 -0.154913 0.782867 
-0.032263 -0.160422 0.782022 
-0.031172 -0.156940 0.780914 
-0.026723 -0.160862 0.776632 
-0.028924 -0.158929 0.778819 
-0.027849 -0.164362 0.778166 
-0.045213 -0.102597 0.779103 
-0.044480 -0.099483 0.776243 
-0.046676 -0.108579 0.782354 
-0.045965 -0.105586 0.780947 
-0.039216 -0.109928 0.775718 
-0.042476 -0.107781 0.778516 
-0.039928 -0.113043 0.777876 
-0.049244 -0.123093 0.791439 
-0.048652 -0.119513 0.790030 
-0.042016 -0.123246 0.784683 
-0.045243 -0.121356 0.787536 
-0.042714 -0.126907 0.786884 
-0.048031 -0.115896 0.788085 
-0.047358 -0.112005 0.784734 
-0.030639 -0.131279 0.773355 
-0.033271 -0.129089 0.775606 
-0.031417 -0.134494 0.774746 
-0.037540 -0.118364 0.777175 
-0.035259 -0.123688 0.776452 
-0.034625 -0.120554 0.774701 
-0.036787 -0.130771 0.781208 
-0.035958 -0.126813 0.777756 
-0.038898 -0.124955 0.781018 
-0.043902 -0.113839 0.781501 
-0.041282 -0.119162 0.780635 
-0.040598 -0.116085 0.779438 
-0.036856 -0.157352 0.788296 
-0.035046 -0.149298 0.783704 
-0.035938 -0.152843 0.784731 
-0.038398 -0.151354 0.788095 
-0.040025 -0.145137 0.787516 
-0.032266 -0.138250 0.777563 
-0.037593 -0.134510 0.783704 
-0.034843 -0.136469 0.780989 
-0.033094 -0.142148 0.780604 
-0.033996 -0.145746 0.782433 
-0.046518 -0.128487 0.790504 
-0.041867 -0.139529 0.788559 
-0.044048 -0.133965 0.789542 
-0.043392 -0.130449 0.788399 
-0.040400 -0.132486 0.786169 
-0.036550 -0.143655 0.784577 
-0.038379 -0.138066 0.785366 
-0.039176 -0.141580 0.786608 
0.014205 -0.188042 0.725810 
0.011300 -0.187485 0.727495 
0.012479 -0.190964 0.728330 
0.008312 -0.180144 0.726282 
0.009918 -0.184008 0.727405 
0.011052 -0.180229 0.723004 
0.007263 -0.189976 0.733828 
0.008499 -0.186785 0.729703 
0.005996 -0.186130 0.732382 
0.003007 -0.162824 0.722759 
0.004015 -0.167170 0.722784 
0.005076 -0.164117 0.720536 
0.001932 -0.174648 0.731342 
0.003007 -0.170820 0.726788 
0.000861 -0.170237 0.730675 
0.007583 -0.172147 0.720385 
0.005202 -0.171488 0.723335 
0.006523 -0.175822 0.724352 
-0.000809 -0.188490 0.749097 
-0.000422 -0.184347 0.742525 
-0.002345 -0.184416 0.747871 
0.003637 -0.185470 0.735417 
0.001579 -0.184854 0.738812 
0.002990 -0.189344 0.741434 
-0.001285 -0.176459 0.736286 
0.000042 -0.180694 0.737269 
0.000727 -0.177459 0.733362 
0.005636 -0.179628 0.729199 
0.003120 -0.178465 0.731008 
0.004620 -0.182249 0.731467 
-0.006123 -0.128722 0.726529 
-0.004780 -0.133254 0.726260 
-0.004120 -0.130378 0.723279 
-0.006257 -0.138421 0.729923 
-0.005471 -0.135963 0.728561 
-0.007520 -0.134109 0.731068 
-0.001603 -0.139260 0.723165 
-0.003466 -0.137677 0.725958 
-0.002238 -0.142027 0.725602 
-0.010013 -0.151110 0.741892 
-0.009057 -0.148135 0.739635 
-0.010999 -0.146501 0.742562 
-0.005163 -0.150338 0.731576 
-0.007175 -0.149191 0.735308 
-0.006063 -0.154045 0.736018 
-0.009202 -0.139520 0.734882 
-0.008172 -0.144363 0.734963 
-0.007200 -0.141088 0.731648 
0.002963 -0.156076 0.722043 
0.000958 -0.154558 0.723831 
0.002012 -0.158593 0.723111 
-0.001186 -0.146332 0.725185 
-0.000089 -0.150556 0.724765 
0.000741 -0.147782 0.722685 
-0.002019 -0.156086 0.728527 
-0.001046 -0.152980 0.725779 
-0.003106 -0.151593 0.728395 
-0.005200 -0.142779 0.729091 
-0.004234 -0.147187 0.728552 
-0.003174 -0.144678 0.727364 
-0.017926 -0.181275 0.769397 
-0.016779 -0.177618 0.766619 
-0.018889 -0.176391 0.769313 
-0.012409 -0.179155 0.759693 
-0.014472 -0.178489 0.763450 
-0.013220 -0.183466 0.764679 
-0.016639 -0.168420 0.762541 
-0.015608 -0.173187 0.762048 
-0.014588 -0.169940 0.760375 
-0.004332 -0.183580 0.750892 
-0.006260 -0.182598 0.753436 
-0.004779 -0.186573 0.753901 
-0.008735 -0.173581 0.752301 
-0.007530 -0.178237 0.752991 
-0.006966 -0.173739 0.746881 
-0.008831 -0.184484 0.757804 
-0.008186 -0.181509 0.755711 
-0.010174 -0.180336 0.757796 
-0.012924 -0.153006 0.747960 
-0.012038 -0.158044 0.748184 
-0.011044 -0.154329 0.744515 
-0.013609 -0.166538 0.758135 
-0.012846 -0.162629 0.754140 
-0.014767 -0.161587 0.758031 
-0.009096 -0.164000 0.745062 
-0.010990 -0.163044 0.748787 
-0.009859 -0.168379 0.750605 
-0.011378 -0.175923 0.757921 
-0.010621 -0.172576 0.755412 
-0.012605 -0.171348 0.758011 
0.000987 -0.161707 0.725590 
-0.003073 -0.159821 0.732694 
-0.001057 -0.160726 0.728902 
-0.000152 -0.165466 0.729570 
-0.001327 -0.169242 0.733674 
-0.009121 -0.155765 0.741488 
-0.007178 -0.165115 0.741631 
-0.008158 -0.160426 0.741405 
-0.007120 -0.157332 0.738981 
-0.005078 -0.159011 0.736933 
-0.003884 -0.179264 0.744491 
-0.002414 -0.172130 0.735795 
-0.003229 -0.175497 0.739535 
-0.005108 -0.174573 0.743087 
-0.006258 -0.169858 0.742130 
-0.004148 -0.163356 0.736282 
-0.005279 -0.166372 0.738513 
-0.003319 -0.167729 0.735816 
-0.040989 -0.100786 0.770518 
-0.036135 -0.111834 0.772188 
-0.038485 -0.106317 0.771545 
-0.037711 -0.102577 0.766589 
-0.034683 -0.104460 0.762910 
-0.028110 -0.133349 0.770933 
-0.029906 -0.127965 0.771479 
-0.028517 -0.120098 0.762765 
-0.029194 -0.124381 0.768447 
-0.026644 -0.125494 0.762919 
-0.031808 -0.122579 0.771933 
-0.033956 -0.117229 0.772148 
-0.026218 -0.110522 0.754483 
-0.023667 -0.112539 0.751593 
-0.031742 -0.106366 0.759658 
-0.028892 -0.108358 0.756820 
-0.025248 -0.118447 0.755934 
-0.027006 -0.113346 0.756358 
-0.027782 -0.116566 0.759218 
-0.033197 -0.113063 0.766593 
-0.030436 -0.114788 0.762760 
-0.032477 -0.109571 0.762821 
-0.019688 -0.171234 0.769107 
-0.017640 -0.163508 0.763031 
-0.018657 -0.166799 0.764559 
-0.020589 -0.165787 0.768465 
-0.021565 -0.159983 0.767222 
-0.013992 -0.147949 0.747881 
-0.014859 -0.151709 0.751702 
-0.018633 -0.149625 0.761349 
-0.016765 -0.150422 0.755732 
-0.017817 -0.145008 0.755463 
-0.015704 -0.156352 0.757744 
-0.016684 -0.160115 0.760973 
-0.024940 -0.144139 0.769597 
-0.026405 -0.138741 0.770320 
-0.022564 -0.154789 0.767999 
-0.023607 -0.149486 0.768839 
-0.021844 -0.142566 0.764891 
-0.022707 -0.146104 0.767224 
-0.020630 -0.147965 0.764535 
-0.018603 -0.158459 0.763539 
-0.019539 -0.153266 0.764073 
-0.020545 -0.156671 0.765861 
-0.008199 -0.126811 0.729508 
-0.012415 -0.122546 0.734988 
-0.010331 -0.124741 0.732305 
-0.008925 -0.129476 0.731673 
-0.009631 -0.131823 0.732779 
-0.021254 -0.114133 0.747086 
-0.018904 -0.115884 0.743033 
-0.015888 -0.126151 0.742723 
-0.017390 -0.120991 0.742788 
-0.018012 -0.124588 0.747275 
-0.016718 -0.117848 0.739535 
-0.014481 -0.120029 0.736818 
-0.012061 -0.141878 0.743648 
-0.013013 -0.144606 0.745026 
-0.010383 -0.134629 0.735031 
-0.011212 -0.138011 0.738740 
-0.015264 -0.134804 0.746509 
-0.013204 -0.136605 0.743165 
-0.014495 -0.131357 0.742832 
-0.013124 -0.124885 0.735988 
-0.013788 -0.127861 0.738752 
-0.011755 -0.129754 0.735384 
-0.025660 -0.135318 0.768216 
-0.021071 -0.138074 0.759324 
-0.023314 -0.137086 0.764908 
-0.024949 -0.131380 0.764208 
-0.024235 -0.127171 0.759022 
-0.015001 -0.142850 0.748072 
-0.017409 -0.132685 0.748954 
-0.016110 -0.137754 0.748440 
-0.017005 -0.141198 0.751525 
-0.019028 -0.139611 0.755292 
-0.021940 -0.117757 0.751723 
-0.023494 -0.123637 0.755602 
-0.022729 -0.120454 0.753009 
-0.020312 -0.122652 0.750583 
-0.018811 -0.127644 0.749669 
-0.020350 -0.134239 0.755281 
-0.019619 -0.130746 0.751967 
-0.021851 -0.128911 0.755380 
-0.236356 -0.143499 0.777749 
-0.238448 -0.141170 0.782790 
-0.230415 -0.151637 0.783242 
-0.234463 -0.146494 0.782966 
-0.229019 -0.153582 0.777855 
-0.240845 -0.138101 0.786782 
-0.242862 -0.134960 0.790185 
-0.212341 -0.170256 0.783599 
-0.217092 -0.165914 0.783529 
-0.212415 -0.172734 0.779592 
-0.228505 -0.149914 0.790441 
-0.222497 -0.158197 0.787109 
-0.223431 -0.154582 0.790528 
-0.221359 -0.163594 0.779074 
-0.221655 -0.161371 0.783314 
-0.226187 -0.156551 0.783239 
-0.248016 -0.124472 0.798254 
-0.249603 -0.121031 0.801080 
-0.244893 -0.131594 0.793160 
-0.246862 -0.128259 0.796092 
-0.236172 -0.137435 0.796306 
-0.241638 -0.132820 0.796328 
-0.234789 -0.140995 0.793500 
-0.231949 -0.148329 0.787070 
-0.233418 -0.144836 0.790401 
-0.238147 -0.139913 0.790337 
-0.170405 -0.203567 0.781617 
-0.176151 -0.199270 0.782095 
-0.172263 -0.204956 0.778628 
-0.185538 -0.186001 0.788900 
-0.180673 -0.193029 0.785598 
-0.179514 -0.190884 0.788361 
-0.182880 -0.197165 0.778962 
-0.181710 -0.195192 0.782429 
-0.187104 -0.191048 0.782619 
-0.208729 -0.153496 0.800913 
-0.202429 -0.162080 0.797793 
-0.202315 -0.158942 0.800403 
-0.202714 -0.169110 0.792768 
-0.202560 -0.165465 0.795107 
-0.208511 -0.160590 0.795373 
-0.190130 -0.175562 0.794157 
-0.196438 -0.170424 0.794743 
-0.190756 -0.178420 0.791890 
-0.203016 -0.181014 0.779653 
-0.202583 -0.178597 0.783244 
-0.207538 -0.174370 0.783445 
-0.192313 -0.187011 0.782771 
-0.197517 -0.182875 0.783028 
-0.193099 -0.189229 0.779282 
-0.208133 -0.167971 0.790007 
-0.202536 -0.175673 0.786565 
-0.202618 -0.172515 0.789723 
-0.191344 -0.181416 0.789250 
-0.197007 -0.176928 0.789499 
-0.191856 -0.184318 0.786153 
-0.257735 -0.094552 0.820298 
-0.258177 -0.090738 0.822134 
-0.256317 -0.102104 0.816898 
-0.257028 -0.098190 0.818401 
-0.244190 -0.107705 0.818390 
-0.250777 -0.102606 0.818468 
-0.244040 -0.111159 0.817182 
-0.251160 -0.117337 0.804244 
-0.252572 -0.113518 0.807574 
-0.241297 -0.121840 0.808288 
-0.247071 -0.117475 0.808068 
-0.240025 -0.125487 0.804897 
-0.253940 -0.109770 0.811022 
-0.255365 -0.106136 0.814607 
-0.215644 -0.141543 0.806315 
-0.222224 -0.136048 0.806997 
-0.215294 -0.144653 0.803921 
-0.236648 -0.119369 0.813665 
-0.229464 -0.127793 0.810428 
-0.230052 -0.124646 0.812895 
-0.228079 -0.134703 0.804801 
-0.228761 -0.131142 0.807671 
-0.235117 -0.126458 0.808144 
-0.249350 -0.110009 0.814457 
-0.242154 -0.118039 0.811182 
-0.243129 -0.114515 0.814244 
-0.212767 -0.167014 0.787073 
-0.213949 -0.159628 0.793248 
-0.213360 -0.163422 0.790265 
-0.218409 -0.158966 0.790447 
-0.224442 -0.150498 0.793566 
-0.215031 -0.148243 0.801231 
-0.227219 -0.138493 0.801673 
-0.221225 -0.143229 0.801511 
-0.214689 -0.151963 0.798363 
-0.214307 -0.155760 0.795649 
-0.244294 -0.125183 0.801554 
-0.230688 -0.141979 0.796191 
-0.237349 -0.133410 0.798753 
-0.238751 -0.129489 0.801757 
-0.233032 -0.133994 0.801748 
-0.219922 -0.151024 0.795915 
-0.226204 -0.142376 0.798643 
-0.225393 -0.146487 0.796093 
-0.085963 -0.274363 0.779083 
-0.089803 -0.271728 0.778289 
-0.087477 -0.275218 0.776511 
-0.096108 -0.263192 0.782283 
-0.092844 -0.267597 0.780264 
-0.091881 -0.266182 0.782895 
-0.096080 -0.268642 0.775260 
-0.094181 -0.268326 0.777651 
-0.098827 -0.264898 0.777259 
-0.110556 -0.243028 0.789913 
-0.106841 -0.248439 0.787902 
-0.106308 -0.246419 0.790551 
-0.108715 -0.251248 0.783001 
-0.107630 -0.250001 0.785394 
-0.112282 -0.246123 0.785046 
-0.098899 -0.256688 0.786777 
-0.103158 -0.253592 0.785973 
-0.099582 -0.258467 0.784126 
-0.115755 -0.253691 0.774340 
-0.113468 -0.253457 0.776325 
-0.118785 -0.249277 0.776383 
-0.103673 -0.261318 0.776944 
-0.108437 -0.257475 0.776553 
-0.105705 -0.261641 0.774710 
-0.115063 -0.248222 0.780599 
-0.111633 -0.252948 0.778465 
