-0.105474 -0.291417 -0.323946 
-0.113707 -0.287504 -0.322588 
-0.121854 -0.275490 -0.284598 
-0.117976 -0.279372 -0.290903 
-0.114470 -0.279624 -0.286113 
-0.125141 -0.277736 -0.301254 
-0.121449 -0.278610 -0.296014 
-0.128737 -0.273933 -0.294559 
-0.106090 -0.286672 -0.298938 
-0.113904 -0.282940 -0.297438 
-0.109733 -0.286207 -0.304158 
-0.136847 -0.273296 -0.317726 
-0.143871 -0.267655 -0.315860 
-0.121800 -0.283339 -0.321092 
-0.129477 -0.278555 -0.319471 
-0.136107 -0.271333 -0.305011 
-0.132852 -0.275073 -0.312114 
-0.128879 -0.276457 -0.306652 
-0.113562 -0.285551 -0.309610 
-0.121407 -0.281312 -0.308150 
-0.117588 -0.284593 -0.315263 
-0.142969 -0.247345 -0.245013 
-0.140070 -0.248109 -0.241108 
-0.148672 -0.245394 -0.253171 
-0.145794 -0.246408 -0.249057 
-0.135002 -0.256198 -0.251532 
-0.140598 -0.251392 -0.250225 
-0.137932 -0.255446 -0.255595 
-0.160570 -0.239930 -0.270198 
-0.157478 -0.241524 -0.265918 
-0.146993 -0.252395 -0.268613 
-0.152379 -0.246966 -0.267257 
-0.150017 -0.250953 -0.273098 
-0.154487 -0.242958 -0.261637 
-0.151596 -0.244294 -0.257364 
-0.122199 -0.271990 -0.273989 
-0.128894 -0.267570 -0.272555 
-0.125561 -0.271648 -0.278467 
-0.135019 -0.259444 -0.261138 
-0.132015 -0.263474 -0.266791 
-0.128936 -0.264168 -0.262493 
-0.138428 -0.261781 -0.275852 
-0.135205 -0.262725 -0.271258 
-0.141191 -0.257592 -0.269974 
-0.146360 -0.249400 -0.258600 
-0.143905 -0.253530 -0.264184 
-0.140890 -0.254545 -0.259836 
-0.146455 -0.263569 -0.308598 
-0.139154 -0.267326 -0.298187 
-0.142742 -0.265539 -0.303347 
-0.149220 -0.259713 -0.301531 
-0.151859 -0.255773 -0.294764 
-0.128815 -0.270896 -0.283223 
-0.141575 -0.260510 -0.280540 
-0.135297 -0.265762 -0.281917 
-0.132228 -0.270067 -0.288074 
-0.135663 -0.268854 -0.293088 
-0.158603 -0.243755 -0.275992 
-0.154168 -0.251647 -0.288291 
-0.156348 -0.247541 -0.282051 
-0.153176 -0.249399 -0.277544 
-0.147508 -0.255033 -0.279081 
-0.142063 -0.263219 -0.291587 
-0.144827 -0.259090 -0.285231 
-0.148251 -0.257498 -0.289977 
0.020869 -0.301566 -0.328540 
0.014320 -0.302331 -0.329305 
0.005556 -0.302064 -0.318985 
0.009844 -0.302004 -0.324172 
0.011881 -0.301737 -0.318309 
0.007339 -0.302739 -0.329848 
0.000418 -0.303668 -0.330334 
-0.011242 -0.299759 -0.298142 
-0.007088 -0.300523 -0.303413 
-0.005197 -0.299407 -0.297746 
-0.011708 -0.302378 -0.314607 
-0.009263 -0.301702 -0.308993 
-0.015632 -0.301732 -0.309301 
0.003176 -0.300914 -0.308012 
-0.002978 -0.301225 -0.308639 
0.001198 -0.301791 -0.313786 
-0.020866 -0.304924 -0.331363 
-0.027958 -0.304881 -0.331580 
-0.006730 -0.304153 -0.330722 
-0.013781 -0.304550 -0.331058 
-0.021142 -0.303450 -0.320396 
-0.017480 -0.303994 -0.325755 
-0.014441 -0.303243 -0.320173 
-0.000988 -0.302810 -0.319436 
-0.007711 -0.302957 -0.319859 
-0.003630 -0.303546 -0.325103 
-0.044294 -0.289859 -0.257215 
-0.039991 -0.291521 -0.262459 
-0.038413 -0.289955 -0.257302 
-0.043635 -0.294364 -0.272486 
-0.041736 -0.293046 -0.267497 
-0.047924 -0.292651 -0.267228 
-0.029961 -0.293417 -0.267489 
-0.035748 -0.293009 -0.267667 
-0.031583 -0.294814 -0.272690 
-0.052564 -0.298100 -0.292397 
-0.050166 -0.297443 -0.287386 
-0.056706 -0.296840 -0.286784 
-0.037709 -0.298215 -0.287974 
-0.043887 -0.297898 -0.287758 
-0.040032 -0.299188 -0.293072 
-0.052059 -0.294728 -0.277089 
-0.047860 -0.296437 -0.282446 
-0.045672 -0.295421 -0.277488 
-0.013552 -0.297924 -0.287446 
-0.019404 -0.298130 -0.287852 
-0.015345 -0.299011 -0.292927 
-0.027497 -0.296216 -0.277737 
-0.023445 -0.297429 -0.282757 
-0.021712 -0.295868 -0.277540 
-0.027611 -0.299312 -0.293277 
-0.025447 -0.298424 -0.288016 
-0.031577 -0.298282 -0.288080 
-0.039509 -0.295878 -0.277709 
-0.035499 -0.297216 -0.282898 
-0.033452 -0.296076 -0.277811 
-0.074003 -0.301403 -0.328717 
-0.080993 -0.299683 -0.327672 
-0.060722 -0.303109 -0.330318 
-0.067281 -0.302302 -0.329620 
-0.073899 -0.299927 -0.316719 
-0.070353 -0.301266 -0.323160 
-0.066930 -0.300928 -0.317811 
-0.034788 -0.304761 -0.331608 
-0.041355 -0.304695 -0.331473 
-0.047463 -0.303318 -0.319681 
-0.044320 -0.304131 -0.325552 
-0.040989 -0.303211 -0.320094 
-0.047858 -0.304554 -0.331190 
-0.054329 -0.304107 -0.330792 
-0.061742 -0.298125 -0.296598 
-0.057788 -0.299536 -0.302393 
-0.055087 -0.298799 -0.297407 
-0.063750 -0.300740 -0.312563 
-0.060672 -0.300132 -0.307442 
-0.067526 -0.299343 -0.306468 
-0.047777 -0.301854 -0.308603 
-0.054169 -0.301050 -0.308122 
-0.050732 -0.302341 -0.313883 
-0.057215 -0.303337 -0.324652 
-0.053831 -0.302528 -0.319264 
-0.060337 -0.302063 -0.318600 
-0.017369 -0.300195 -0.298402 
-0.029876 -0.300544 -0.298521 
-0.023579 -0.300396 -0.298547 
-0.019575 -0.301199 -0.303909 
-0.022032 -0.301982 -0.309419 
-0.048699 -0.299529 -0.297912 
-0.041384 -0.302031 -0.309006 
-0.044975 -0.300850 -0.303438 
-0.042420 -0.300132 -0.298233 
-0.036175 -0.300323 -0.298451 
-0.031182 -0.304433 -0.325941 
-0.024787 -0.302834 -0.314933 
-0.027822 -0.303664 -0.320415 
-0.034447 -0.303693 -0.320297 
-0.037870 -0.302897 -0.314653 
-0.032300 -0.301492 -0.303876 
-0.034960 -0.302263 -0.309260 
-0.028495 -0.302302 -0.309387 
-0.091340 -0.247100 -0.184115 
-0.088071 -0.245557 -0.180387 
-0.097780 -0.248952 -0.191280 
-0.094559 -0.248063 -0.187643 
-0.084329 -0.252372 -0.188439 
-0.089428 -0.250488 -0.188263 
-0.087383 -0.253852 -0.192574 
-0.110727 -0.251009 -0.205973 
-0.107364 -0.250459 -0.202371 
-0.096803 -0.256514 -0.204361 
-0.102209 -0.253626 -0.203441 
-0.099985 -0.257184 -0.208347 
-0.104165 -0.250024 -0.198600 
-0.100999 -0.249613 -0.194815 
-0.074755 -0.265127 -0.205869 
-0.080224 -0.263702 -0.205750 
-0.077468 -0.266743 -0.210394 
-0.085116 -0.257084 -0.196839 
-0.082765 -0.260513 -0.201192 
-0.079948 -0.258987 -0.196829 
-0.088717 -0.262517 -0.209859 
-0.085750 -0.261720 -0.205483 
-0.091294 -0.259323 -0.205014 
-0.095784 -0.252343 -0.195866 
-0.093618 -0.255758 -0.200420 
-0.090480 -0.254843 -0.196545 
-0.136894 -0.248623 -0.237441 
-0.133699 -0.249325 -0.233590 
-0.122903 -0.258242 -0.236305 
-0.128437 -0.253856 -0.234934 
-0.126062 -0.257844 -0.240248 
-0.130516 -0.250063 -0.229624 
-0.127316 -0.250684 -0.225601 
-0.098130 -0.272490 -0.241761 
-0.104555 -0.269295 -0.240518 
-0.101136 -0.272750 -0.246128 
-0.110347 -0.261866 -0.229551 
-0.107528 -0.265469 -0.235036 
-0.104306 -0.265126 -0.230785 
-0.113905 -0.265685 -0.243343 
-0.110747 -0.265651 -0.239258 
-0.117071 -0.262391 -0.237684 
-0.117251 -0.251088 -0.213713 
-0.114052 -0.251240 -0.209699 
-0.123959 -0.250947 -0.221622 
-0.120540 -0.250979 -0.217698 
-0.109765 -0.258319 -0.220000 
-0.115317 -0.254773 -0.218841 
-0.113096 -0.258540 -0.224025 
-0.119694 -0.258550 -0.232234 
-0.116397 -0.258607 -0.228148 
-0.121986 -0.254708 -0.226887 
-0.046802 -0.286290 -0.246822 
-0.052829 -0.285558 -0.246745 
-0.048665 -0.288009 -0.251939 
-0.060780 -0.280988 -0.236010 
-0.056880 -0.283393 -0.241380 
-0.054775 -0.281908 -0.236241 
-0.061334 -0.286314 -0.251287 
-0.059090 -0.284972 -0.246352 
-0.065490 -0.283864 -0.245865 
-0.074521 -0.269693 -0.215183 
-0.071363 -0.272679 -0.220210 
-0.068881 -0.271110 -0.215378 
-0.076657 -0.275227 -0.229633 
-0.073988 -0.274102 -0.224909 
-0.080053 -0.272245 -0.224346 
-0.062173 -0.276643 -0.225735 
-0.068067 -0.275866 -0.225276 
-0.064459 -0.278278 -0.230696 
-0.087885 -0.278748 -0.248386 
-0.085042 -0.278082 -0.243775 
-0.091516 -0.275191 -0.242931 
-0.071962 -0.282312 -0.245285 
-0.078582 -0.280721 -0.244464 
-0.074565 -0.283480 -0.250007 
-0.085718 -0.273977 -0.233608 
-0.082235 -0.277313 -0.239043 
-0.079436 -0.276352 -0.234328 
-0.066922 -0.279885 -0.235542 
-0.073138 -0.278280 -0.235007 
-0.069424 -0.281194 -0.240418 
-0.108662 -0.254390 -0.211085 
-0.104003 -0.261704 -0.221137 
-0.106460 -0.258036 -0.216088 
-0.103187 -0.257654 -0.212240 
-0.097531 -0.260638 -0.213239 
-0.095043 -0.271951 -0.237309 
-0.089008 -0.270677 -0.228297 
-0.091994 -0.271342 -0.232810 
-0.098168 -0.268271 -0.231914 
-0.101134 -0.264832 -0.226523 
-0.080278 -0.267980 -0.214911 
-0.091769 -0.263188 -0.214088 
-0.086035 -0.265774 -0.214591 
-0.083161 -0.269035 -0.219379 
-0.086115 -0.270004 -0.223778 
-0.098022 -0.264535 -0.222297 
-0.092002 -0.267159 -0.223239 
-0.094878 -0.263909 -0.218187 
-0.084924 -0.297772 -0.320787 
-0.078078 -0.297915 -0.310268 
-0.081446 -0.298120 -0.315400 
-0.089332 -0.295718 -0.313920 
-0.093834 -0.293207 -0.307173 
-0.066235 -0.296345 -0.290708 
-0.068951 -0.296930 -0.295482 
-0.084115 -0.293247 -0.292687 
-0.076471 -0.295376 -0.294149 
-0.081151 -0.292930 -0.288073 
-0.071854 -0.297438 -0.300311 
-0.074890 -0.297667 -0.305257 
-0.107027 -0.283696 -0.287758 
-0.111234 -0.280019 -0.281610 
-0.098333 -0.290290 -0.300539 
-0.102698 -0.287070 -0.294080 
-0.096287 -0.287348 -0.284991 
-0.099501 -0.287461 -0.289419 
-0.091784 -0.290445 -0.291122 
-0.082557 -0.295640 -0.303807 
-0.087194 -0.293307 -0.297384 
-0.090430 -0.293314 -0.302199 
-0.050510 -0.289332 -0.257006 
-0.063584 -0.287462 -0.256071 
-0.056962 -0.288552 -0.256620 
-0.052441 -0.290667 -0.261929 
-0.054474 -0.291702 -0.266823 
-0.090687 -0.279228 -0.252737 
-0.083878 -0.281887 -0.253750 
-0.075312 -0.287857 -0.264421 
-0.079739 -0.285110 -0.259006 
-0.082269 -0.285414 -0.263464 
-0.077167 -0.284498 -0.254531 
-0.070345 -0.286206 -0.255359 
-0.061259 -0.294906 -0.281150 
-0.063720 -0.295800 -0.285904 
-0.056616 -0.292873 -0.271622 
-0.058887 -0.293932 -0.276389 
-0.073255 -0.291321 -0.274395 
-0.065971 -0.292664 -0.275516 
-0.070733 -0.290590 -0.269850 
-0.065877 -0.288557 -0.260753 
-0.068249 -0.289538 -0.265364 
-0.061284 -0.290806 -0.266165 
-0.134802 -0.252883 -0.242470 
-0.129090 -0.260835 -0.253052 
-0.132102 -0.256883 -0.247703 
-0.129102 -0.257385 -0.244007 
-0.123191 -0.261763 -0.245552 
-0.115154 -0.276027 -0.275678 
-0.118835 -0.272105 -0.269880 
-0.112979 -0.273143 -0.261750 
-0.115919 -0.272767 -0.265744 
-0.109251 -0.277060 -0.267298 
-0.122577 -0.268638 -0.264061 
-0.125931 -0.264784 -0.258475 
-0.104081 -0.272933 -0.250179 
-0.097382 -0.276072 -0.251594 
-0.116952 -0.265642 -0.247181 
-0.110630 -0.269463 -0.248690 
-0.103195 -0.276657 -0.259502 
-0.107011 -0.273054 -0.254090 
-0.109981 -0.273171 -0.257928 
-0.122937 -0.265193 -0.254667 
-0.116536 -0.269259 -0.256319 
-0.119931 -0.265436 -0.250937 
-0.070991 -0.294316 -0.284787 
-0.080514 -0.289306 -0.273185 
-0.075789 -0.291953 -0.278937 
-0.078411 -0.292556 -0.283473 
-0.085851 -0.290089 -0.282097 
-0.093474 -0.279629 -0.256871 
-0.099184 -0.280384 -0.264905 
-0.096302 -0.280018 -0.260905 
-0.089235 -0.282759 -0.262300 
-0.084859 -0.285857 -0.267760 
-0.108009 -0.280134 -0.277356 
-0.093263 -0.287160 -0.280626 
-0.100636 -0.283778 -0.279046 
-0.104953 -0.280268 -0.273170 
-0.102086 -0.280505 -0.268987 
-0.087579 -0.286403 -0.272011 
-0.094803 -0.283546 -0.270589 
-0.090342 -0.286733 -0.276332 
-0.096280 -0.055053 0.183032 
-0.092521 -0.059581 0.180563 
-0.094409 -0.057299 0.181782 
-0.095065 -0.058146 0.186760 
-0.093718 -0.061269 0.190484 
-0.084668 -0.068113 0.175558 
-0.086659 -0.066036 0.176809 
-0.087592 -0.068351 0.186994 
-0.087093 -0.067260 0.181910 
-0.085459 -0.070583 0.185811 
-0.088658 -0.063890 0.178022 
-0.090652 -0.061734 0.179281 
-0.089079 -0.070331 0.201770 
-0.087202 -0.073146 0.205511 
-0.092328 -0.064296 0.194206 
-0.090805 -0.067369 0.198002 
-0.086360 -0.072333 0.195898 
-0.088580 -0.069896 0.196994 
-0.088111 -0.069261 0.192046 
-0.091094 -0.062818 0.184395 
-0.089637 -0.066031 0.188202 
-0.091659 -0.063681 0.189365 
-0.067783 -0.084531 0.165422 
-0.069914 -0.082621 0.166624 
-0.070175 -0.085168 0.177019 
-0.070063 -0.083932 0.171794 
-0.067970 -0.087113 0.175833 
-0.072026 -0.080650 0.167857 
-0.074141 -0.078619 0.169107 
-0.070407 -0.089074 0.197989 
-0.070409 -0.088300 0.192764 
-0.067943 -0.091115 0.196956 
-0.074903 -0.082178 0.184625 
-0.072704 -0.085268 0.188666 
-0.075055 -0.083124 0.189834 
-0.068055 -0.089390 0.186392 
-0.070352 -0.087363 0.187518 
-0.070283 -0.086335 0.182260 
-0.080603 -0.072330 0.172928 
-0.082669 -0.070185 0.174245 
-0.076299 -0.076550 0.170351 
-0.078481 -0.074469 0.171626 
-0.079113 -0.076808 0.181932 
-0.078795 -0.075659 0.176758 
-0.076915 -0.078941 0.180652 
-0.072433 -0.083172 0.178211 
-0.074677 -0.081084 0.179419 
-0.074388 -0.079860 0.174248 
-0.068464 -0.089102 0.232389 
-0.065260 -0.090702 0.236372 
-0.074556 -0.085411 0.224597 
-0.071486 -0.087267 0.228462 
-0.066463 -0.091986 0.227236 
-0.068972 -0.089645 0.227839 
-0.069483 -0.090084 0.223155 
-0.085216 -0.075927 0.209233 
-0.082814 -0.078506 0.213039 
-0.077831 -0.083241 0.211233 
-0.080372 -0.080971 0.212170 
-0.080309 -0.080669 0.207311 
-0.080181 -0.080936 0.216882 
-0.077479 -0.083308 0.220749 
-0.067774 -0.092249 0.207366 
-0.070283 -0.090061 0.208315 
-0.070375 -0.089669 0.203180 
-0.069843 -0.090269 0.218328 
-0.070138 -0.090292 0.213371 
-0.067307 -0.092505 0.217529 
-0.075361 -0.085182 0.205237 
-0.072799 -0.087799 0.209279 
-0.075324 -0.085534 0.210250 
-0.074927 -0.085674 0.219963 
-0.075193 -0.085725 0.215177 
-0.072397 -0.088004 0.219149 
-0.083032 -0.071488 0.179377 
-0.079383 -0.077904 0.187132 
-0.081240 -0.074726 0.183241 
-0.083338 -0.072669 0.184549 
-0.083727 -0.073733 0.189672 
-0.072874 -0.086918 0.199067 
-0.077775 -0.082512 0.201259 
-0.075339 -0.084730 0.200162 
-0.075213 -0.084018 0.195020 
-0.077389 -0.081011 0.191043 
-0.084865 -0.075629 0.204532 
-0.084145 -0.074601 0.194704 
-0.084502 -0.075212 0.199685 
-0.082500 -0.077976 0.203472 
-0.080140 -0.080241 0.202359 
-0.079680 -0.078913 0.192272 
-0.079943 -0.079701 0.197349 
-0.081918 -0.076769 0.193493 
-0.026210 -0.111282 0.145166 
-0.029201 -0.109736 0.146642 
-0.028661 -0.112257 0.158096 
-0.028907 -0.110954 0.152374 
-0.025536 -0.113705 0.156679 
-0.032096 -0.108258 0.148117 
-0.034973 -0.106834 0.149560 
-0.027437 -0.116492 0.181086 
-0.027747 -0.115567 0.175324 
-0.024138 -0.117907 0.179727 
-0.034483 -0.110577 0.166504 
-0.031201 -0.113136 0.170900 
-0.034275 -0.111668 0.172177 
-0.024889 -0.116073 0.168183 
-0.028080 -0.114590 0.169570 
-0.028364 -0.113452 0.163841 
-0.043365 -0.102402 0.153714 
-0.046084 -0.100871 0.155013 
-0.037818 -0.105425 0.150979 
-0.040618 -0.103938 0.152362 
-0.040499 -0.106433 0.163429 
-0.040589 -0.105235 0.157883 
-0.037618 -0.107951 0.162154 
-0.031702 -0.110850 0.159482 
-0.034674 -0.109399 0.160843 
-0.034871 -0.108197 0.155182 
-0.025670 -0.121143 0.226549 
-0.025861 -0.120786 0.220984 
-0.022859 -0.123379 0.225273 
-0.032348 -0.116296 0.211932 
-0.029019 -0.118416 0.216510 
-0.032059 -0.116742 0.217553 
-0.023124 -0.122437 0.214031 
-0.026024 -0.120291 0.215358 
-0.026295 -0.119900 0.209680 
-0.045493 -0.107784 0.193325 
-0.042394 -0.110145 0.197970 
-0.045222 -0.108402 0.198905 
-0.036460 -0.113522 0.196015 
-0.039483 -0.111886 0.197017 
-0.039686 -0.111195 0.191421 
-0.038738 -0.112673 0.208254 
-0.039171 -0.112376 0.202627 
-0.035762 -0.114325 0.207280 
-0.023870 -0.120032 0.191206 
-0.027084 -0.118357 0.192551 
-0.027239 -0.117480 0.186824 
-0.026660 -0.119631 0.203970 
-0.026815 -0.118935 0.198278 
-0.023531 -0.121456 0.202635 
-0.033571 -0.114380 0.189281 
-0.030234 -0.116710 0.193798 
-0.033377 -0.115141 0.194953 
-0.032750 -0.116036 0.206280 
-0.033137 -0.115738 0.200613 
-0.029716 -0.117815 0.205181 
-0.063398 -0.088303 0.163161 
-0.065659 -0.086424 0.164265 
-0.058723 -0.092069 0.160948 
-0.061075 -0.090181 0.162063 
-0.061316 -0.092579 0.172473 
-0.061207 -0.091377 0.167239 
-0.058983 -0.094461 0.171383 
-0.048737 -0.099262 0.156256 
-0.051318 -0.097540 0.157471 
-0.051467 -0.099979 0.168087 
-0.051419 -0.098800 0.162758 
-0.048849 -0.101749 0.166955 
-0.053856 -0.095780 0.158653 
-0.056307 -0.093935 0.159814 
-0.051166 -0.103606 0.189756 
-0.051330 -0.102836 0.184283 
-0.048470 -0.105341 0.188749 
-0.056575 -0.097392 0.175605 
-0.054031 -0.100190 0.179905 
-0.056564 -0.098410 0.180967 
-0.048675 -0.103674 0.177820 
-0.051387 -0.101939 0.178861 
-0.051444 -0.101010 0.173454 
-0.056461 -0.095174 0.165028 
-0.054049 -0.098176 0.169194 
-0.056548 -0.096326 0.170293 
-0.030678 -0.115092 0.182356 
-0.036876 -0.112037 0.184729 
-0.033809 -0.113576 0.183576 
-0.034051 -0.112680 0.177868 
-0.037304 -0.110210 0.173395 
-0.045700 -0.107113 0.187793 
-0.045896 -0.105348 0.176792 
-0.045844 -0.106321 0.182280 
-0.042847 -0.108832 0.186826 
-0.039889 -0.110452 0.185813 
-0.046122 -0.102149 0.160406 
-0.040362 -0.107551 0.169000 
-0.043320 -0.104891 0.164661 
-0.046113 -0.103354 0.165828 
-0.045996 -0.104377 0.171305 
-0.040072 -0.109597 0.180193 
-0.043080 -0.106988 0.175723 
-0.040234 -0.108636 0.174585 
-0.021106 -0.113609 0.300591 
-0.018513 -0.114606 0.304348 
-0.027386 -0.112351 0.292547 
-0.024065 -0.112821 0.296524 
-0.019349 -0.116706 0.294827 
-0.021667 -0.114722 0.295849 
-0.022394 -0.116023 0.291178 
-0.040224 -0.108546 0.275464 
-0.037152 -0.109868 0.279838 
-0.031821 -0.113612 0.279049 
-0.034446 -0.111753 0.279529 
-0.034941 -0.112486 0.274887 
-0.033946 -0.110898 0.284113 
-0.030732 -0.111782 0.288354 
-0.021611 -0.121089 0.275435 
-0.024194 -0.119169 0.276609 
-0.024674 -0.119990 0.271672 
-0.023052 -0.117165 0.286310 
-0.023659 -0.118226 0.281482 
-0.020591 -0.119111 0.285194 
-0.029783 -0.116209 0.273614 
-0.026734 -0.117286 0.277590 
-0.029275 -0.115445 0.278400 
-0.028064 -0.113531 0.287933 
-0.028684 -0.114550 0.283182 
-0.025500 -0.115305 0.287245 
-0.061945 -0.092211 0.240536 
-0.058597 -0.093737 0.244820 
-0.053347 -0.098166 0.244437 
-0.056002 -0.096056 0.244675 
-0.056748 -0.096792 0.240107 
-0.055401 -0.095401 0.249176 
-0.052521 -0.097362 0.253586 
-0.043109 -0.106258 0.242856 
-0.045565 -0.104156 0.243349 
-0.046255 -0.104681 0.238489 
-0.045110 -0.104031 0.252837 
-0.045140 -0.103889 0.248111 
-0.042791 -0.106315 0.252449 
-0.051494 -0.100862 0.239425 
-0.048082 -0.102115 0.243764 
-0.050713 -0.100171 0.244138 
-0.045457 -0.104557 0.266699 
-0.042917 -0.106657 0.271054 
-0.049904 -0.099547 0.257978 
-0.047667 -0.102057 0.262343 
-0.043050 -0.106866 0.261882 
-0.045300 -0.104462 0.262156 
-0.045195 -0.104286 0.257525 
-0.050091 -0.099633 0.248778 
-0.047494 -0.101821 0.253158 
-0.049859 -0.099495 0.253408 
-0.022776 -0.124038 0.236025 
-0.025587 -0.121817 0.237232 
-0.025581 -0.121507 0.231992 
-0.025660 -0.122129 0.247378 
-0.025645 -0.122056 0.242346 
-0.022744 -0.124145 0.246216 
-0.030768 -0.116866 0.234002 
-0.028338 -0.119634 0.238255 
-0.030936 -0.117378 0.239181 
-0.025032 -0.120653 0.266792 
-0.025274 -0.121202 0.261988 
-0.022284 -0.122616 0.265662 
-0.030993 -0.117819 0.254133 
-0.028212 -0.119650 0.258132 
-0.030861 -0.117638 0.259011 
-0.022580 -0.123629 0.256054 
-0.025429 -0.121610 0.257167 
-0.025568 -0.121940 0.252304 
-0.041034 -0.108477 0.237275 
-0.038369 -0.110703 0.241617 
-0.040727 -0.108449 0.242288 
-0.033407 -0.115083 0.240035 
-0.035852 -0.112819 0.240858 
-0.035866 -0.112497 0.235737 
-0.035990 -0.113403 0.250782 
-0.035961 -0.113193 0.245861 
-0.033586 -0.115683 0.250036 
-0.028377 -0.119968 0.248355 
-0.031006 -0.117815 0.249237 
-0.030979 -0.117665 0.244257 
-0.040481 -0.108971 0.270901 
-0.040698 -0.109135 0.261547 
-0.040589 -0.109096 0.266262 
-0.037992 -0.111116 0.270630 
-0.035377 -0.113022 0.270170 
-0.040497 -0.108454 0.247182 
-0.036007 -0.113569 0.255670 
-0.038222 -0.110997 0.251451 
-0.040476 -0.108628 0.252006 
-0.040608 -0.108933 0.256790 
-0.027663 -0.118731 0.267833 
-0.032789 -0.114936 0.269550 
-0.030228 -0.116832 0.268773 
-0.030626 -0.117349 0.263903 
-0.033398 -0.115621 0.259825 
-0.038305 -0.111374 0.261113 
-0.035932 -0.113604 0.260542 
-0.035696 -0.113387 0.265382 
-0.065720 -0.087684 0.169456 
-0.061365 -0.093803 0.177786 
-0.063569 -0.090760 0.173587 
-0.065784 -0.088966 0.174700 
-0.065812 -0.090177 0.179992 
-0.050890 -0.104335 0.195320 
-0.053731 -0.101911 0.190834 
-0.058635 -0.098497 0.192976 
-0.056214 -0.100214 0.191920 
-0.055921 -0.100939 0.197430 
-0.056413 -0.099336 0.186422 
-0.058961 -0.096634 0.182073 
-0.065599 -0.093047 0.195960 
-0.065451 -0.093741 0.201240 
-0.065814 -0.091306 0.185312 
-0.065756 -0.092269 0.190639 
-0.060734 -0.097439 0.199386 
-0.063296 -0.094922 0.194980 
-0.060959 -0.096717 0.193998 
-0.061290 -0.094887 0.183165 
-0.061200 -0.095920 0.188569 
-0.063572 -0.093124 0.184241 
-0.028410 -0.118950 0.227644 
-0.033687 -0.114642 0.229543 
-0.031092 -0.116798 0.228629 
-0.031470 -0.116657 0.223128 
-0.034980 -0.115016 0.218537 
-0.044284 -0.106953 0.232789 
-0.041609 -0.108756 0.232064 
-0.043191 -0.109594 0.221335 
-0.042463 -0.109330 0.226768 
-0.045842 -0.107786 0.222170 
-0.038898 -0.110564 0.231267 
-0.036302 -0.112584 0.230437 
-0.044814 -0.108915 0.204552 
-0.047929 -0.106697 0.199893 
-0.038292 -0.113001 0.213888 
-0.041596 -0.111010 0.209231 
-0.046979 -0.107552 0.211133 
-0.044325 -0.109290 0.210190 
-0.043780 -0.109511 0.215781 
-0.037068 -0.112988 0.225026 
-0.040500 -0.111375 0.220436 
-0.037768 -0.113185 0.219501 
-0.062700 -0.093080 0.236080 
-0.063877 -0.094157 0.226673 
-0.063261 -0.093636 0.231433 
-0.060087 -0.095312 0.235763 
-0.057503 -0.097479 0.235393 
-0.065299 -0.094266 0.206467 
-0.065039 -0.094499 0.211651 
-0.059218 -0.098465 0.220435 
-0.062258 -0.096640 0.216011 
-0.059762 -0.098583 0.215244 
-0.064782 -0.094633 0.216773 
-0.064345 -0.094462 0.221786 
-0.049616 -0.103344 0.234008 
-0.046963 -0.105166 0.233424 
-0.054952 -0.099622 0.235020 
-0.052276 -0.101504 0.234541 
-0.053653 -0.102269 0.224301 
-0.053018 -0.102011 0.229492 
-0.056154 -0.100276 0.224946 
-0.061265 -0.096245 0.226123 
-0.058679 -0.098269 0.225553 
-0.058157 -0.098002 0.230545 
-0.050492 -0.104935 0.200925 
-0.049572 -0.105782 0.212049 
-0.050044 -0.105419 0.206511 
-0.053015 -0.103194 0.201940 
-0.055515 -0.101465 0.202917 
-0.047786 -0.105720 0.228252 
-0.054129 -0.102214 0.219027 
-0.051078 -0.104142 0.223642 
-0.048464 -0.105958 0.222938 
-0.049024 -0.105923 0.217524 
-0.062878 -0.096167 0.205596 
-0.057995 -0.099737 0.203846 
-0.060464 -0.098002 0.204728 
-0.060143 -0.098386 0.210013 
-0.057287 -0.100484 0.214496 
-0.052168 -0.104038 0.212912 
-0.054757 -0.102301 0.213727 
-0.055134 -0.101935 0.208350 
0.073764 -0.170525 0.268537 
0.075836 -0.168782 0.266801 
0.075809 -0.170713 0.271744 
0.075939 -0.164459 0.256585 
0.075856 -0.166511 0.261719 
0.073804 -0.165950 0.258310 
0.080060 -0.166791 0.267751 
0.077902 -0.166747 0.264859 
0.079969 -0.164725 0.262967 
0.075951 -0.156063 0.235931 
0.075978 -0.158131 0.241147 
0.073876 -0.157539 0.237553 
0.080091 -0.158790 0.247875 
0.078019 -0.158511 0.244593 
0.080072 -0.156711 0.242853 
0.073906 -0.161695 0.247902 
0.076064 -0.160335 0.246247 
0.076024 -0.162391 0.251377 
0.087770 -0.157363 0.260364 
0.085849 -0.158036 0.257329 
0.087778 -0.155455 0.255580 
0.082117 -0.162822 0.260898 
0.084013 -0.160559 0.259050 
0.084100 -0.162461 0.263887 
0.083881 -0.156354 0.249436 
0.084018 -0.158575 0.254213 
0.082111 -0.158839 0.251062 
0.078060 -0.162791 0.254728 
0.080148 -0.160927 0.252856 
0.080062 -0.162824 0.257944 
0.075189 -0.140551 0.194274 
0.075195 -0.142356 0.199661 
0.072745 -0.141958 0.195852 
0.079944 -0.142654 0.207007 
0.077598 -0.142575 0.203372 
0.080033 -0.140821 0.201707 
0.073129 -0.145948 0.206462 
0.075335 -0.144341 0.204956 
0.075494 -0.146334 0.210191 
0.088452 -0.141351 0.221279 
0.086370 -0.141784 0.217787 
0.088492 -0.139322 0.216237 
0.082062 -0.146245 0.220906 
0.084179 -0.144034 0.219349 
0.084139 -0.145995 0.224387 
0.084325 -0.140173 0.209083 
0.084220 -0.142084 0.214264 
0.082124 -0.142416 0.210659 
0.073712 -0.153556 0.227103 
0.075793 -0.151979 0.225659 
0.075917 -0.154031 0.230740 
0.075657 -0.148290 0.215371 
0.075721 -0.150104 0.220536 
0.073461 -0.149790 0.216854 
0.079958 -0.150274 0.227588 
0.077935 -0.150345 0.224057 
0.079958 -0.148316 0.222501 
0.079848 -0.144385 0.212288 
0.079931 -0.146388 0.217407 
0.077756 -0.146449 0.213829 
0.104604 -0.134946 0.248019 
0.102516 -0.136155 0.244651 
0.104600 -0.133109 0.243206 
0.098217 -0.142064 0.247628 
0.100401 -0.139181 0.246118 
0.100275 -0.141033 0.250892 
0.100337 -0.135096 0.236518 
0.100377 -0.137140 0.241347 
0.098315 -0.138021 0.238054 
0.089723 -0.152771 0.253895 
0.091681 -0.150058 0.252307 
0.091754 -0.152082 0.256973 
0.092105 -0.146259 0.242651 
0.091895 -0.148185 0.247495 
0.090015 -0.148831 0.244271 
0.095889 -0.146671 0.253894 
0.093828 -0.147474 0.250705 
0.096017 -0.144833 0.249142 
0.092581 -0.138252 0.223123 
0.092468 -0.140258 0.228075 
0.090471 -0.140819 0.224719 
0.096332 -0.138840 0.234744 
0.094411 -0.139598 0.231409 
0.096445 -0.136846 0.229832 
0.090198 -0.144712 0.234572 
0.092322 -0.142215 0.232981 
0.092193 -0.144202 0.237845 
0.096171 -0.142892 0.244365 
0.094198 -0.143633 0.241095 
0.096253 -0.140866 0.239577 
0.078072 -0.154469 0.234254 
0.081978 -0.150180 0.231060 
0.080081 -0.152487 0.232636 
0.080141 -0.154686 0.237723 
0.082037 -0.154528 0.241171 
0.088349 -0.143313 0.226272 
0.088125 -0.147261 0.236172 
0.088182 -0.145212 0.231257 
0.086149 -0.145628 0.227868 
0.084078 -0.147984 0.229436 
0.087786 -0.153395 0.250808 
0.083961 -0.154294 0.244493 
0.085911 -0.153960 0.247676 
0.087868 -0.151337 0.245981 
0.088062 -0.149354 0.241064 
0.084035 -0.150053 0.234475 
0.086035 -0.149741 0.237826 
0.084011 -0.152182 0.239490 
0.081393 -0.113218 0.117121 
0.078615 -0.113848 0.113019 
0.086448 -0.111902 0.124860 
0.083977 -0.112553 0.121048 
0.077497 -0.116736 0.123157 
0.080773 -0.114705 0.122142 
0.080177 -0.116302 0.127159 
0.095474 -0.109238 0.139504 
0.093329 -0.109903 0.135916 
0.087474 -0.114828 0.138464 
0.090448 -0.112450 0.137159 
0.089859 -0.114445 0.142060 
0.091102 -0.110564 0.132285 
0.088796 -0.111225 0.128599 
0.075967 -0.124163 0.143302 
0.078825 -0.121895 0.142208 
0.078443 -0.123872 0.147252 
0.079737 -0.118192 0.132137 
0.079288 -0.120053 0.137156 
0.076684 -0.120355 0.133197 
0.084037 -0.119128 0.144768 
0.081705 -0.119597 0.141006 
0.084665 -0.117359 0.139717 
0.085721 -0.113501 0.129830 
0.085122 -0.115333 0.134782 
0.082719 -0.115850 0.131013 
0.111724 -0.104758 0.167692 
0.109761 -0.105281 0.164229 
0.104288 -0.110620 0.166853 
0.107021 -0.108004 0.165488 
0.106322 -0.110216 0.170289 
0.107839 -0.105836 0.160752 
0.105872 -0.106366 0.157270 
0.093806 -0.120739 0.172850 
0.096448 -0.118338 0.171263 
0.095853 -0.120325 0.176363 
0.097586 -0.114125 0.161299 
0.096992 -0.116231 0.166256 
0.095023 -0.116817 0.162703 
0.100934 -0.115248 0.173265 
0.098920 -0.115667 0.169792 
0.101509 -0.113058 0.168329 
0.099696 -0.107969 0.146667 
0.097609 -0.108599 0.143075 
0.103790 -0.106801 0.153793 
0.101750 -0.107362 0.150248 
0.096287 -0.112730 0.152782 
0.099133 -0.110225 0.151427 
0.098261 -0.112074 0.156366 
0.102264 -0.111031 0.163401 
0.100210 -0.111455 0.159924 
0.103069 -0.108998 0.158539 
0.073055 -0.138755 0.184984 
0.075614 -0.136914 0.183606 
0.075387 -0.138844 0.188875 
0.076458 -0.133500 0.172995 
0.076014 -0.135208 0.178291 
0.073685 -0.135214 0.174380 
0.080450 -0.134725 0.185919 
0.078272 -0.135044 0.182124 
0.080836 -0.132856 0.180652 
0.077942 -0.125674 0.152384 
0.077505 -0.127588 0.157506 
0.075071 -0.127761 0.153560 
0.082126 -0.127049 0.165080 
0.079849 -0.127350 0.161333 
0.082593 -0.125093 0.159948 
0.074421 -0.131654 0.163859 
0.077122 -0.129550 0.162643 
0.076832 -0.131602 0.167785 
0.090778 -0.125344 0.179569 
0.088645 -0.125779 0.176014 
0.091198 -0.123218 0.174452 
0.083449 -0.130588 0.179130 
0.086059 -0.128241 0.177577 
0.085623 -0.130211 0.182786 
0.086996 -0.124268 0.167269 
0.086508 -0.126249 0.172407 
0.084323 -0.126660 0.168767 
0.079054 -0.131293 0.171646 
0.081666 -0.128989 0.170240 
0.081259 -0.130960 0.175420 
0.094942 -0.111414 0.144295 
0.093552 -0.115331 0.154182 
0.094240 -0.113372 0.149212 
0.092104 -0.113952 0.145644 
0.089230 -0.116386 0.147030 
0.091766 -0.121289 0.169308 
0.087596 -0.122408 0.162121 
0.089720 -0.121886 0.165728 
0.092420 -0.119430 0.164185 
0.092957 -0.117368 0.159169 
0.080802 -0.123521 0.151087 
0.086379 -0.118775 0.148416 
0.083565 -0.121145 0.149781 
0.083107 -0.123175 0.154830 
0.085371 -0.122812 0.158496 
0.090857 -0.117920 0.155605 
0.088141 -0.120430 0.157042 
0.088693 -0.118431 0.152007 
0.138689 -0.088120 0.228481 
0.137785 -0.090181 0.224423 
0.132163 -0.095051 0.226990 
0.135021 -0.092649 0.225738 
0.133380 -0.093072 0.231064 
0.136921 -0.091908 0.220424 
0.135845 -0.093509 0.216428 
0.122917 -0.106224 0.232141 
0.124849 -0.103181 0.230903 
0.124545 -0.104479 0.236149 
0.127213 -0.101154 0.220198 
0.125687 -0.102000 0.225550 
0.124485 -0.103761 0.221470 
0.128629 -0.098473 0.233637 
0.127043 -0.100258 0.229649 
0.129626 -0.097625 0.228339 
0.131972 -0.097530 0.204532 
0.130527 -0.098755 0.200675 
0.134686 -0.094893 0.212456 
0.133356 -0.096212 0.208447 
0.127471 -0.101622 0.210881 
0.130343 -0.098892 0.209639 
0.128849 -0.100199 0.214876 
0.131159 -0.096934 0.222945 
0.130047 -0.098623 0.218917 
0.132943 -0.096125 0.217664 
0.106571 -0.130090 0.241816 
0.108620 -0.127203 0.240514 
0.108746 -0.128882 0.245419 
0.108694 -0.123823 0.230472 
0.108464 -0.125399 0.235571 
0.106482 -0.126583 0.231879 
0.112773 -0.122953 0.243044 
0.110604 -0.124243 0.239293 
0.112849 -0.121449 0.238039 
0.110618 -0.117207 0.209726 
0.109810 -0.118719 0.214980 
0.107973 -0.119754 0.211208 
0.113585 -0.116476 0.222712 
0.111697 -0.117625 0.218822 
0.114256 -0.114929 0.217482 
0.107000 -0.123188 0.221622 
0.109263 -0.120380 0.220194 
0.108937 -0.122137 0.225347 
0.120932 -0.110741 0.238443 
0.118894 -0.112252 0.234558 
0.121155 -0.109385 0.233339 
0.114877 -0.118423 0.236892 
0.116840 -0.115305 0.235733 
0.116847 -0.116886 0.240725 
0.117619 -0.112253 0.225401 
0.116923 -0.113610 0.230647 
0.115233 -0.115058 0.226694 
0.110999 -0.121067 0.229136 
0.113066 -0.118042 0.227916 
0.112996 -0.119841 0.232991 
0.115990 -0.103829 0.174590 
0.113828 -0.104324 0.171117 
0.120310 -0.102605 0.181750 
0.118134 -0.103234 0.178140 
0.112432 -0.108729 0.180695 
0.115251 -0.106007 0.179377 
0.114637 -0.108245 0.184225 
0.128860 -0.099776 0.196823 
0.126838 -0.100560 0.192986 
0.120925 -0.105959 0.195383 
0.123700 -0.103093 0.194182 
0.122836 -0.105041 0.199226 
0.124670 -0.101237 0.189195 
0.122433 -0.101849 0.185458 
0.109518 -0.116492 0.200812 
0.112350 -0.113974 0.199349 
0.111586 -0.115739 0.204492 
0.113953 -0.110318 0.189180 
0.113240 -0.112299 0.194211 
0.111125 -0.112942 0.190584 
0.117224 -0.110490 0.201791 
0.115249 -0.111417 0.197971 
0.118115 -0.108751 0.196653 
0.119564 -0.104721 0.186623 
0.118913 -0.106859 0.191571 
0.116780 -0.107595 0.187857 
0.121460 -0.107915 0.228102 
0.118303 -0.110779 0.220101 
0.119889 -0.109399 0.224092 
0.121964 -0.106420 0.222788 
0.123293 -0.105404 0.217451 
0.113407 -0.114676 0.208324 
0.118962 -0.109401 0.205670 
0.116182 -0.112056 0.206977 
0.115217 -0.113575 0.212213 
0.116757 -0.112174 0.216151 
0.127526 -0.101455 0.201834 
0.124691 -0.104276 0.212179 
0.126037 -0.102885 0.206956 
0.124513 -0.104019 0.203076 
0.121729 -0.106724 0.204376 
0.119306 -0.109480 0.214811 
0.120569 -0.108250 0.209565 
0.121971 -0.106872 0.213492 
0.077779 -0.138909 0.192677 
0.082666 -0.134438 0.189634 
0.080216 -0.136726 0.191180 
0.080101 -0.138796 0.196438 
0.082283 -0.138490 0.200168 
0.092818 -0.124884 0.183123 
0.090261 -0.127343 0.184771 
0.089408 -0.131362 0.195240 
0.089771 -0.129316 0.190007 
0.091791 -0.128841 0.193567 
0.087751 -0.129819 0.186402 
0.085167 -0.132111 0.188049 
0.088649 -0.137357 0.211034 
0.090719 -0.136855 0.214560 
0.084445 -0.138180 0.203846 
0.086553 -0.137792 0.207465 
0.091158 -0.132908 0.204052 
0.088849 -0.135378 0.205777 
0.089115 -0.133408 0.200502 
0.084832 -0.134107 0.193312 
0.086976 -0.133763 0.196936 
0.084602 -0.136145 0.198579 
0.110969 -0.106971 0.172422 
0.109782 -0.111489 0.182090 
0.110330 -0.109215 0.177225 
0.108312 -0.109719 0.173758 
0.105676 -0.112385 0.175191 
0.106876 -0.119003 0.202412 
0.107548 -0.117201 0.197268 
0.103784 -0.118599 0.190297 
0.105652 -0.117905 0.193780 
0.103018 -0.120308 0.195496 
0.108297 -0.115382 0.192148 
0.109095 -0.113547 0.187064 
0.097851 -0.119922 0.179877 
0.095329 -0.122397 0.181501 
0.103012 -0.114914 0.176713 
0.100436 -0.117469 0.178262 
0.099173 -0.121418 0.188559 
0.099852 -0.119536 0.183369 
0.101858 -0.119132 0.186838 
0.107066 -0.114053 0.183609 
0.104434 -0.116611 0.185190 
0.105056 -0.114525 0.180157 
0.104383 -0.131159 0.238365 
0.100392 -0.133166 0.231559 
0.102303 -0.132166 0.234963 
0.104417 -0.129404 0.233377 
0.104649 -0.127723 0.228289 
0.092738 -0.136270 0.218021 
0.094691 -0.135622 0.221420 
0.098910 -0.130231 0.217969 
0.096884 -0.133020 0.219664 
0.097060 -0.130985 0.214524 
0.096600 -0.134893 0.224803 
0.098526 -0.134116 0.228173 
0.105649 -0.122426 0.212814 
0.106277 -0.120764 0.207586 
0.104764 -0.125864 0.223200 
0.105116 -0.124106 0.218035 
0.101554 -0.125820 0.211016 
0.103304 -0.124960 0.214516 
0.101004 -0.127500 0.216250 
0.100701 -0.131459 0.226455 
0.100820 -0.129493 0.221373 
0.102774 -0.128697 0.224793 
0.094727 -0.124348 0.186696 
0.098666 -0.123427 0.193710 
0.096627 -0.123820 0.190242 
0.094192 -0.126320 0.191904 
0.093838 -0.128418 0.197084 
0.104424 -0.121545 0.204088 
0.099742 -0.126636 0.207539 
0.102086 -0.124121 0.205793 
0.102556 -0.122276 0.200622 
0.100651 -0.122920 0.197167 
0.092915 -0.134289 0.212822 
0.093508 -0.130440 0.202305 
0.093140 -0.132317 0.207583 
0.095133 -0.131700 0.211062 
0.097415 -0.129150 0.209297 
0.098307 -0.125506 0.198845 
0.097813 -0.127317 0.204071 
0.095897 -0.127976 0.200568 
-0.037158 -0.157645 -0.043979 
-0.035270 -0.155458 -0.039350 
-0.040834 -0.162379 -0.053741 
-0.039023 -0.160105 -0.048840 
-0.031332 -0.160720 -0.047012 
-0.035227 -0.160434 -0.047690 
-0.033171 -0.162850 -0.051525 
-0.047822 -0.171774 -0.073458 
-0.046079 -0.169331 -0.068525 
-0.038364 -0.169513 -0.065806 
-0.042199 -0.169365 -0.067091 
-0.040110 -0.172019 -0.070470 
-0.044299 -0.166871 -0.063699 
-0.042589 -0.164663 -0.058752 
-0.022956 -0.170927 -0.062259 
-0.026866 -0.170350 -0.062968 
-0.024698 -0.173055 -0.066683 
-0.031109 -0.165370 -0.055413 
-0.029015 -0.167820 -0.059218 
-0.027189 -0.165776 -0.054742 
-0.032445 -0.172481 -0.068206 
-0.030718 -0.169944 -0.063787 
-0.034559 -0.169744 -0.064687 
-0.038780 -0.164839 -0.057326 
-0.036675 -0.167266 -0.061018 
-0.034957 -0.165118 -0.056190 
-0.061115 -0.192780 -0.111170 
-0.059340 -0.189734 -0.106727 
-0.051568 -0.190437 -0.103320 
-0.055413 -0.190060 -0.104984 
-0.053209 -0.193355 -0.107838 
-0.057626 -0.186845 -0.102096 
-0.055891 -0.183939 -0.097520 
-0.036070 -0.190818 -0.098325 
-0.039924 -0.190723 -0.099500 
-0.037697 -0.193768 -0.102685 
-0.044379 -0.184678 -0.093160 
-0.042192 -0.187811 -0.096245 
-0.040606 -0.185046 -0.091760 
-0.045484 -0.193855 -0.104918 
-0.043788 -0.190685 -0.100681 
-0.047679 -0.190604 -0.101929 
-0.051089 -0.176471 -0.083304 
-0.049434 -0.173968 -0.078532 
-0.054217 -0.181222 -0.092892 
-0.052705 -0.178954 -0.088030 
-0.045086 -0.179491 -0.085038 
-0.048895 -0.179269 -0.086457 
-0.046641 -0.181946 -0.089800 
-0.049903 -0.187500 -0.098840 
-0.048194 -0.184469 -0.094486 
-0.052037 -0.184257 -0.095905 
-0.004447 -0.191404 -0.091208 
-0.008641 -0.191243 -0.091935 
-0.006322 -0.194186 -0.095308 
-0.013361 -0.185944 -0.084730 
-0.011015 -0.188656 -0.088279 
-0.009256 -0.186137 -0.084037 
-0.014480 -0.194109 -0.096895 
-0.012742 -0.191342 -0.092576 
-0.016748 -0.191413 -0.093301 
-0.022444 -0.175507 -0.070509 
-0.020248 -0.178291 -0.074004 
-0.018493 -0.176034 -0.069730 
-0.023538 -0.183004 -0.082928 
-0.021924 -0.180642 -0.078409 
-0.025754 -0.180250 -0.079425 
-0.013931 -0.180942 -0.076937 
-0.017970 -0.180722 -0.077651 
-0.015680 -0.183249 -0.081229 
-0.029964 -0.193715 -0.100670 
-0.028365 -0.191017 -0.096184 
-0.032198 -0.190905 -0.097224 
-0.020656 -0.191255 -0.094239 
-0.024527 -0.191141 -0.095192 
-0.022331 -0.194046 -0.098622 
-0.028974 -0.185409 -0.088386 
-0.026756 -0.188308 -0.091752 
-0.025139 -0.185605 -0.087349 
-0.017347 -0.185798 -0.085556 
-0.021298 -0.185835 -0.086337 
-0.019001 -0.188485 -0.089890 
-0.045607 -0.174198 -0.076884 
-0.041239 -0.179599 -0.083715 
-0.043405 -0.176760 -0.080341 
-0.041765 -0.174338 -0.075405 
-0.037944 -0.174598 -0.074051 
-0.034493 -0.188153 -0.093787 
-0.031213 -0.182527 -0.084957 
-0.032878 -0.185407 -0.089319 
-0.036752 -0.185245 -0.090475 
-0.039018 -0.182436 -0.087089 
-0.026363 -0.175254 -0.071200 
-0.034107 -0.174914 -0.072857 
-0.030240 -0.175035 -0.071966 
-0.027992 -0.177576 -0.075764 
-0.029599 -0.180020 -0.080367 
-0.037373 -0.179752 -0.082433 
-0.033482 -0.179864 -0.081337 
-0.035702 -0.177105 -0.077763 
-0.085630 -0.243063 -0.175582 
-0.084320 -0.240078 -0.170861 
-0.076104 -0.241344 -0.169097 
-0.080237 -0.240865 -0.169931 
-0.077450 -0.244474 -0.173866 
-0.083237 -0.237074 -0.166477 
-0.082030 -0.234059 -0.162145 
-0.060152 -0.242516 -0.166259 
-0.064080 -0.242525 -0.166801 
-0.061424 -0.245969 -0.170891 
-0.069531 -0.235409 -0.159353 
-0.066756 -0.238898 -0.163040 
-0.065451 -0.235546 -0.158636 
-0.069409 -0.245455 -0.172296 
-0.068045 -0.242236 -0.167599 
-0.072071 -0.241741 -0.168432 
-0.077990 -0.224509 -0.150045 
-0.076529 -0.221368 -0.146176 
-0.080748 -0.230739 -0.158232 
-0.079381 -0.227488 -0.154187 
-0.070871 -0.228260 -0.152038 
-0.075089 -0.227931 -0.153007 
-0.072246 -0.231505 -0.156188 
-0.074906 -0.238244 -0.164524 
-0.073651 -0.235024 -0.160209 
-0.077831 -0.234711 -0.161008 
-0.029235 -0.242060 -0.161016 
-0.032917 -0.242415 -0.161656 
-0.030101 -0.245658 -0.165685 
-0.038237 -0.236172 -0.153786 
-0.035622 -0.239373 -0.157618 
-0.034501 -0.235831 -0.153196 
-0.037599 -0.246261 -0.167006 
-0.036641 -0.242797 -0.162251 
-0.040435 -0.242977 -0.162939 
-0.048102 -0.222972 -0.139623 
-0.045666 -0.226105 -0.143177 
-0.044172 -0.222782 -0.138918 
-0.048531 -0.233008 -0.151607 
-0.047127 -0.229476 -0.147434 
-0.051069 -0.229405 -0.148240 
-0.039439 -0.229389 -0.145841 
-0.043230 -0.229427 -0.146661 
-0.040757 -0.232842 -0.150158 
-0.053521 -0.246206 -0.169622 
-0.052269 -0.242949 -0.164940 
-0.056253 -0.242719 -0.165627 
-0.044325 -0.243203 -0.163540 
-0.048293 -0.243217 -0.164170 
-0.045441 -0.246488 -0.168281 
-0.053780 -0.236219 -0.156669 
-0.051077 -0.239793 -0.160314 
-0.049840 -0.236440 -0.155914 
-0.042023 -0.236306 -0.154522 
-0.045894 -0.236412 -0.155226 
-0.043215 -0.239843 -0.158918 
-0.064760 -0.199115 -0.119130 
-0.062928 -0.195928 -0.115281 
-0.068304 -0.205344 -0.126876 
-0.066554 -0.202262 -0.122961 
-0.058370 -0.202750 -0.120245 
-0.062431 -0.202510 -0.121577 
-0.060050 -0.205804 -0.124310 
-0.075017 -0.218118 -0.142437 
-0.073408 -0.214851 -0.138623 
-0.065159 -0.215382 -0.136259 
-0.069283 -0.215168 -0.137325 
-0.066775 -0.218785 -0.140081 
-0.071744 -0.211611 -0.134749 
-0.070052 -0.208452 -0.130802 
-0.048885 -0.216152 -0.132284 
-0.052898 -0.216094 -0.133178 
-0.050506 -0.219602 -0.136315 
-0.057659 -0.209147 -0.127193 
-0.055316 -0.212713 -0.130037 
-0.053673 -0.209496 -0.125928 
-0.058582 -0.219147 -0.138273 
-0.056952 -0.215881 -0.134201 
-0.061037 -0.215640 -0.135233 
-0.065908 -0.208749 -0.129470 
-0.063459 -0.212101 -0.132338 
-0.061752 -0.208915 -0.128347 
-0.058935 -0.239404 -0.161611 
-0.056370 -0.232547 -0.153184 
-0.057675 -0.236038 -0.157294 
-0.061540 -0.235808 -0.157932 
-0.064181 -0.232252 -0.154407 
-0.052101 -0.222959 -0.140403 
-0.060120 -0.222481 -0.142245 
-0.056073 -0.222590 -0.141444 
-0.053581 -0.226067 -0.144724 
-0.055003 -0.229250 -0.148996 
-0.072394 -0.221865 -0.144856 
-0.066878 -0.228859 -0.150970 
-0.069618 -0.225329 -0.147817 
-0.068236 -0.222063 -0.143953 
-0.064162 -0.222312 -0.143083 
-0.058939 -0.229105 -0.149665 
-0.061564 -0.225870 -0.146149 
-0.062903 -0.229074 -0.150239 
0.035183 -0.228553 -0.148311 
0.030600 -0.229891 -0.149201 
0.033688 -0.232156 -0.153167 
0.025188 -0.225200 -0.141645 
0.027921 -0.227654 -0.145316 
0.029850 -0.224068 -0.140851 
0.025360 -0.235031 -0.155114 
0.026378 -0.231252 -0.150232 
0.022163 -0.232612 -0.151115 
0.014942 -0.215687 -0.127113 
0.017448 -0.218257 -0.130503 
0.019544 -0.214872 -0.126377 
0.013812 -0.225080 -0.139625 
0.015540 -0.221612 -0.134987 
0.011160 -0.222707 -0.135797 
0.024639 -0.219397 -0.133651 
0.020041 -0.220588 -0.134136 
0.022631 -0.222818 -0.137963 
0.009029 -0.239787 -0.158662 
0.009862 -0.236099 -0.153826 
0.005874 -0.237075 -0.154643 
0.018077 -0.233781 -0.152138 
0.013928 -0.234891 -0.153111 
0.017175 -0.237602 -0.156914 
0.008116 -0.229924 -0.145015 
0.010956 -0.232413 -0.149032 
0.012287 -0.228800 -0.144248 
0.020831 -0.226733 -0.142302 
0.016531 -0.227704 -0.143337 
0.019304 -0.230348 -0.147044 
-0.004059 -0.196664 -0.098868 
-0.001809 -0.199155 -0.102266 
0.000255 -0.196421 -0.098177 
-0.005742 -0.205010 -0.110711 
-0.003806 -0.202022 -0.106450 
-0.007987 -0.202360 -0.107281 
0.004865 -0.200896 -0.105180 
0.000474 -0.201563 -0.105693 
0.002805 -0.203995 -0.109124 
-0.012788 -0.217949 -0.128235 
-0.011142 -0.214739 -0.123709 
-0.015162 -0.214835 -0.124837 
-0.002794 -0.213633 -0.121952 
-0.006990 -0.214227 -0.122829 
-0.004511 -0.216852 -0.126465 
-0.011731 -0.208686 -0.115782 
-0.009411 -0.211492 -0.119277 
-0.007613 -0.208226 -0.114954 
0.014610 -0.210245 -0.119385 
0.010075 -0.211111 -0.119842 
0.012522 -0.213408 -0.123500 
0.005211 -0.206439 -0.112578 
0.007642 -0.208866 -0.116131 
0.009681 -0.205782 -0.112062 
0.003879 -0.215574 -0.124631 
0.005723 -0.212183 -0.120310 
0.001449 -0.213083 -0.120973 
-0.003414 -0.207774 -0.114055 
-0.001010 -0.210328 -0.117575 
0.000860 -0.207150 -0.113264 
-0.022680 -0.244768 -0.164618 
-0.021790 -0.241421 -0.159834 
-0.025553 -0.241720 -0.160427 
-0.014082 -0.240528 -0.158639 
-0.017970 -0.241138 -0.159163 
-0.015000 -0.244106 -0.163326 
-0.023451 -0.234935 -0.151343 
-0.020763 -0.237912 -0.155298 
-0.019637 -0.234420 -0.150815 
0.001922 -0.238062 -0.155411 
-0.002098 -0.238974 -0.156157 
0.001045 -0.241657 -0.160190 
-0.007811 -0.233130 -0.148516 
-0.005023 -0.236070 -0.152310 
-0.003802 -0.232529 -0.147621 
-0.007065 -0.243129 -0.161800 
-0.006132 -0.239628 -0.157007 
-0.010132 -0.240082 -0.157902 
-0.018297 -0.221526 -0.133576 
-0.015793 -0.224495 -0.137203 
-0.014336 -0.221166 -0.132764 
-0.018440 -0.231177 -0.146202 
-0.017159 -0.227848 -0.141671 
-0.021025 -0.228195 -0.142422 
-0.009154 -0.226698 -0.140221 
-0.013184 -0.227348 -0.140942 
-0.010523 -0.230237 -0.144703 
-0.013007 -0.237203 -0.153869 
-0.011821 -0.233795 -0.149210 
-0.015768 -0.234180 -0.150002 
0.010527 -0.216697 -0.127799 
0.002080 -0.218830 -0.129177 
0.006250 -0.217791 -0.128460 
0.008652 -0.220155 -0.132180 
0.006970 -0.223876 -0.136537 
-0.010282 -0.220613 -0.131945 
-0.005138 -0.226147 -0.139282 
-0.007732 -0.223291 -0.135664 
-0.006181 -0.220010 -0.131068 
-0.002058 -0.219448 -0.130115 
0.002934 -0.234410 -0.150670 
0.005455 -0.227401 -0.141117 
0.004098 -0.230885 -0.145866 
0.000152 -0.231790 -0.146717 
-0.002510 -0.228995 -0.142939 
0.000391 -0.222116 -0.133746 
-0.001137 -0.225504 -0.138327 
0.002892 -0.224791 -0.137385 
-0.058878 -0.196134 -0.113702 
-0.054383 -0.202917 -0.118986 
-0.056684 -0.199635 -0.116173 
-0.054956 -0.196484 -0.112062 
-0.051059 -0.196741 -0.110594 
-0.045013 -0.216132 -0.131414 
-0.047363 -0.212857 -0.128121 
-0.044242 -0.206170 -0.119908 
-0.045828 -0.209524 -0.124003 
-0.042015 -0.209511 -0.123059 
-0.049711 -0.209535 -0.124939 
-0.052042 -0.206183 -0.121915 
-0.039356 -0.196817 -0.107025 
-0.035471 -0.196659 -0.106065 
-0.047157 -0.196893 -0.109240 
-0.043265 -0.196955 -0.108042 
-0.038803 -0.202903 -0.114709 
-0.040964 -0.199663 -0.111538 
-0.042611 -0.202841 -0.115784 
-0.050423 -0.202981 -0.117813 
-0.046485 -0.202894 -0.116794 
-0.048790 -0.199871 -0.113594 
-0.028244 -0.238635 -0.156450 
-0.025991 -0.231863 -0.147526 
-0.027160 -0.235264 -0.151950 
-0.030817 -0.235454 -0.152644 
-0.033314 -0.232384 -0.148814 
-0.020603 -0.218332 -0.130102 
-0.022070 -0.221693 -0.134415 
-0.029441 -0.222133 -0.135845 
-0.025770 -0.221898 -0.135154 
-0.028005 -0.218670 -0.131638 
-0.023455 -0.225103 -0.138732 
-0.024762 -0.228479 -0.143122 
-0.040404 -0.222602 -0.138173 
-0.042695 -0.219348 -0.134781 
-0.035733 -0.229223 -0.145116 
-0.038094 -0.225919 -0.141598 
-0.035338 -0.219220 -0.133002 
-0.036728 -0.222529 -0.137321 
-0.033084 -0.222457 -0.136467 
-0.028429 -0.228712 -0.143805 
-0.030792 -0.225583 -0.140110 
-0.032079 -0.228966 -0.144460 
-0.008241 -0.196905 -0.099530 
-0.016255 -0.196819 -0.101298 
-0.012304 -0.196929 -0.100349 
-0.010149 -0.199612 -0.103859 
-0.012044 -0.202668 -0.108069 
-0.031597 -0.196424 -0.105231 
-0.027832 -0.196641 -0.104112 
-0.023675 -0.202749 -0.110890 
-0.025765 -0.199796 -0.107419 
-0.027480 -0.202914 -0.111730 
-0.024043 -0.196844 -0.103041 
-0.020173 -0.196816 -0.102160 
-0.017365 -0.211761 -0.121371 
-0.019025 -0.214980 -0.125796 
-0.013897 -0.205670 -0.112416 
-0.015662 -0.208685 -0.116873 
-0.023276 -0.208808 -0.118809 
-0.019498 -0.208730 -0.117876 
-0.021609 -0.205777 -0.114344 
-0.018059 -0.199664 -0.105661 
-0.019867 -0.202736 -0.109944 
-0.015998 -0.202749 -0.108981 
-0.041252 -0.216002 -0.130580 
-0.033881 -0.215811 -0.128817 
-0.037543 -0.215829 -0.129759 
-0.039787 -0.212746 -0.126323 
-0.038240 -0.209324 -0.122224 
-0.022780 -0.215122 -0.126641 
-0.027015 -0.208897 -0.119677 
-0.024912 -0.212017 -0.123134 
-0.026490 -0.215303 -0.127403 
-0.030189 -0.215567 -0.128088 
-0.033326 -0.199657 -0.109455 
-0.036634 -0.205951 -0.118081 
-0.035016 -0.202875 -0.113707 
-0.031273 -0.203014 -0.112610 
-0.029133 -0.205894 -0.116168 
-0.032340 -0.212337 -0.124725 
-0.030752 -0.209013 -0.120519 
-0.034485 -0.209118 -0.121401 
0.033564 -0.235980 -0.157709 
0.038024 -0.234326 -0.156191 
0.025042 -0.238630 -0.159990 
0.029292 -0.237330 -0.158833 
0.038237 -0.240981 -0.165222 
0.033670 -0.239486 -0.162199 
0.033698 -0.242912 -0.166866 
0.008523 -0.243204 -0.163680 
0.012563 -0.242120 -0.162890 
0.020497 -0.246789 -0.170883 
0.016403 -0.244455 -0.166985 
0.016201 -0.248055 -0.171968 
0.016684 -0.241021 -0.161911 
0.020884 -0.239833 -0.160938 
0.038355 -0.253682 -0.184641 
0.033728 -0.252516 -0.181542 
0.033672 -0.255454 -0.186708 
0.033764 -0.246030 -0.171679 
0.033782 -0.249312 -0.176566 
0.038340 -0.247390 -0.174684 
0.024650 -0.252171 -0.179804 
0.029205 -0.250955 -0.178179 
0.024783 -0.248918 -0.174686 
0.024928 -0.242047 -0.164875 
0.024853 -0.245491 -0.169726 
0.029235 -0.244304 -0.168332 
-0.023379 -0.248242 -0.169572 
-0.019561 -0.247994 -0.168893 
-0.012789 -0.254240 -0.177697 
-0.016251 -0.251147 -0.173286 
-0.016774 -0.254817 -0.178371 
-0.015679 -0.247647 -0.168218 
-0.011740 -0.247139 -0.167526 
0.002328 -0.264388 -0.195895 
-0.001625 -0.262133 -0.191309 
-0.001988 -0.265439 -0.196839 
-0.000832 -0.255726 -0.180270 
-0.001226 -0.258958 -0.185734 
0.003040 -0.257903 -0.184823 
-0.009619 -0.260179 -0.187772 
-0.005461 -0.259782 -0.186701 
-0.009177 -0.256995 -0.182267 
0.000409 -0.245187 -0.165076 
0.004496 -0.244227 -0.164350 
-0.007740 -0.246585 -0.166731 
-0.003683 -0.245968 -0.165886 
0.003715 -0.251277 -0.174260 
-0.000071 -0.248655 -0.170059 
-0.000467 -0.252207 -0.175082 
-0.008734 -0.253680 -0.176877 
-0.004622 -0.253117 -0.175919 
-0.008265 -0.250059 -0.171790 
0.037633 -0.277191 -0.228961 
0.032951 -0.275911 -0.225507 
0.032642 -0.278353 -0.231321 
0.033469 -0.270852 -0.213832 
0.033224 -0.273377 -0.219692 
0.038176 -0.271911 -0.217320 
0.023453 -0.275802 -0.223637 
0.028306 -0.274627 -0.221789 
0.023734 -0.273499 -0.217768 
0.033680 -0.258479 -0.191902 
0.033718 -0.261761 -0.197144 
0.038407 -0.259888 -0.194958 
0.024403 -0.264689 -0.200842 
0.029062 -0.263395 -0.199050 
0.024506 -0.261720 -0.195301 
0.038432 -0.266148 -0.205885 
0.033718 -0.264926 -0.202567 
0.033642 -0.267953 -0.208143 
0.006056 -0.269492 -0.206184 
0.010545 -0.268349 -0.205083 
0.006377 -0.266478 -0.200513 
0.019235 -0.271927 -0.213692 
0.014848 -0.270279 -0.209424 
0.014558 -0.273042 -0.215155 
0.015384 -0.264221 -0.198158 
0.015130 -0.267291 -0.203753 
0.019741 -0.265946 -0.202409 
0.028822 -0.269547 -0.210128 
